ply
format ascii 1.0
comment File exported by Rhinoceros Version 7.0
element vertex 496
property float x
property float y
property float z
property float nx
property float ny
property float nz
property uchar red
property uchar green
property uchar blue
end_header
3.56304688288453 1.61150280829308 -0.342385725196323 0.991007 -0.1104343 -0.07556 192 192 179
3.50166218675135 1.56965885214646 -0.372335708568857 0.09878908 0.2409803 0.9654891 231 229 228
3.49758502035235 1.53818988710205 -0.349265458244138 -0.9272737 0.2021857 0.3150944 207 204 199
3.49320485450783 1.58822169928682 -0.361294985092457 0.03722353 -0.9712636 0.2350776 236 234 235
3.52519508378601 1.56876178647319 -0.366581847202759 0.4038656 0.1478065 0.9027989 234 231 230
3.57903435926624 1.58382825400972 -0.367653734400276 0.3562687 0.2333206 0.904784 227 225 224
3.53882326418138 1.54255083827996 -0.363718355015939 -0.1528885 0.1949986 0.9688141 233 231 231
3.5660600550681 1.61142854024605 -0.363085311760003 0.8525239 0.1329198 0.505505 220 217 213
3.52818812115402 1.59796529588085 -0.364233354586086 0.1760831 -0.2623136 0.9487815 234 232 231
3.56913850515689 1.54054394541046 -0.357528116933055 -0.3170972 0.6010728 0.7335945 206 206 204
3.59892042638848 1.58119572803313 -0.357425631058691 0.9152313 0.3183573 0.2469821 196 195 187
3.54999053777359 1.59497729064974 -0.366623842602006 0.02141915 -0.008663299 0.999733 233 229 230
3.53852187510404 1.60733805787809 -0.363364319675944 0.08663361 -0.1739771 0.9809315 230 228 228
3.53531849605333 1.62793457029754 -0.356157195287794 0.6103667 -0.7545919 0.2409221 208 205 201
3.54149124140713 1.59189050389453 -0.366715381881468 0.1390029 0.06302524 0.9882843 249 221 241
3.56696224073117 1.6130425061207 -0.355551094060488 0.9533472 0.1192678 -0.2773162 222 220 216
3.53347207463842 1.56392205396532 -0.364604165255818 0.08397351 0.0906442 0.9923367 235 231 229
3.52446155575851 1.61580163584941 -0.360875575781773 0.2842822 -0.3914142 0.875202 234 231 229
3.50109439840978 1.58482768530019 -0.371394915262218 0.2149213 -0.2230425 0.9508212 232 230 228
3.54064640625166 1.53720914617271 -0.359504996549812 -0.4399343 0.5520099 0.7083381 188 190 181
3.51378576266492 1.58099562613245 -0.370101659223258 0.5017934 0.08494767 0.8608062 227 226 225
3.54216991424558 1.578191605206 -0.366583978497037 -0.005018204 -0.008992878 0.999947 253 207 251
3.5101820533662 1.56221788745339 -0.362815984036958 -0.9730505 -0.03566496 -0.2278176 227 225 225
3.54988722458564 1.61775456118891 -0.363177136911275 -0.04788946 -0.3592492 0.9320121 232 231 229
3.49963542866931 1.57978206313852 -0.3729946317019 0.1184114 -0.2416828 0.9631034 221 221 222
3.49053146540593 1.5518949431438 -0.335651459923212 -0.7833048 -0.4725341 0.4039123 214 217 219
3.60300844817572 1.56927028985029 -0.358300755541822 0.2777019 0.5524654 0.7859157 221 219 216
3.55024821001141 1.62554531248074 -0.352666065670046 0.8482248 -0.5180911 -0.1099834 214 212 209
3.49357656340567 1.53993404408943 -0.332987832535458 -0.8117334 -0.5840249 -0.001938287 217 220 220
3.52097418222122 1.57689845010314 -0.358637983593852 -0.9346988 0.162726 0.3160037 229 225 227
3.57312110618529 1.58681067820428 -0.368834104825882 0.09673481 -0.1945533 0.9761103 234 232 229
3.55832525717074 1.55675482798428 -0.363070951891362 0.439302 0.2330379 0.8675869 235 226 229
3.57654247405211 1.60423111588422 -0.358940094373701 0.8893189 -0.1766561 0.4217873 217 215 209
3.49926967579935 1.54492980426289 -0.337821766364129 -0.469659 0.4062443 0.7838278 230 229 229
3.49896252254621 1.59828618607869 -0.356740205458204 -0.1753689 -0.6570789 0.7331392 232 229 230
3.52510508800772 1.58945996471855 -0.366520782927585 -0.007627842 0.00709361 0.9999458 249 219 242
3.5513282101274 1.53737337912933 -0.33966769302351 -0.7316968 0.6590613 -0.1739482 186 184 173
3.57454369512126 1.59120328397213 -0.368031422980038 0.1561963 -0.06981411 0.9852557 232 228 228
3.52973907826518 1.59360705631006 -0.366215105924678 0.1319075 -0.1676117 0.9769886 230 227 225
3.49652221758708 1.58995312984695 -0.341493423575103 -0.343295 -0.9391381 0.01297085 193 197 196
3.59025304782999 1.59377769850378 -0.350799643708008 0.9838101 0.1768357 -0.02910232 197 196 184
3.53692230727532 1.60979875201058 -0.362544405919949 0.1061084 -0.2127701 0.9713238 234 232 231
3.56076588808326 1.61493114244803 -0.358265890809777 0.9051297 -0.06488443 0.4201549 228 225 220
3.58381514290854 1.58286558040846 -0.365370113712247 0.2473669 0.1165196 0.9618902 230 227 224
3.5839440052795 1.53621252555627 -0.34646849844511 -0.6323132 0.7456701 0.2101337 196 195 188
3.4892363266331 1.58583146852874 -0.359199959602683 -0.1808794 -0.9756649 0.1239382 225 223 224
3.49062969007766 1.5433897737851 -0.350594362992697 -0.9054199 -0.4111227 -0.1057969 215 212 210
3.50510483950048 1.60668971201301 -0.360654647511979 0.0318574 -0.6894513 0.7236311 233 228 227
3.50268522126965 1.57779015852975 -0.373249231599232 0.1274994 -0.1592835 0.9789651 237 234 237
3.48858234609633 1.56789676671998 -0.354520601822465 -0.7005742 -0.712845 0.03236954 213 213 211
3.49141346813916 1.58707836011827 -0.354121346660449 -0.4524463 -0.8741656 -0.176428 202 204 198
3.54229840190868 1.58391782269698 -0.36572351223564 0.05149663 -0.05200924 0.997318 251 218 246
3.56341903349181 1.54814161749646 -0.362848982074308 -0.06685744 0.4122544 0.9086124 203 201 198
3.49273969712277 1.59224456110517 -0.355257915099664 -0.2697035 -0.8483233 0.4556397 232 230 231
3.54774466120885 1.54161257590554 -0.3613804611727 -0.09072087 0.425939 0.9001921 222 220 219
3.49111573289952 1.57731203809964 -0.337710977502661 -0.3796797 -0.9179552 -0.1148982 218 218 218
3.49610372134698 1.57780186420611 -0.347713865363347 -0.286883 0.01425254 0.9578596 216 216 213
3.57583900372248 1.60201088943096 -0.361434467631247 0.8778909 -0.151782 0.4541693 227 224 220
3.49187472064642 1.55508128367029 -0.362227797257724 -0.8053682 -0.1934757 0.5603116 212 212 210
3.50673903551227 1.53151803608401 -0.35042991851375 -0.853965 0.2007224 0.4800566 225 225 223
3.52662299764893 1.57254374563075 -0.365143684762006 0.3426575 -0.1080028 0.9332316 233 231 227
3.53922314209104 1.59759463730491 -0.350827079027614 -0.1422516 -0.9808266 0.1332057 232 230 229
3.50656324594749 1.6140080296473 -0.341761797407649 0.2956159 -0.8728747 -0.3882024 213 214 211
3.5875396503781 1.54169915894723 -0.353532007926148 -0.3127124 0.6195073 0.720015 204 202 198
3.58904275862453 1.590789666191 -0.362892777942388 0.7892854 -0.2632383 0.5547379 209 208 205
3.49239807997711 1.55620576868812 -0.364075539991608 -0.7830462 -0.07909127 0.6169143 218 216 215
3.59670258096115 1.55352025216312 -0.356142715294047 0.1835417 0.3882709 0.9030826 207 206 198
3.51447305722723 1.59495493588103 -0.366492623920619 0.3562188 0.05835745 0.9325784 237 234 233
3.56297275999648 1.57484230041701 -0.3651650922827 0.02653667 -0.13096 0.9910324 240 237 238
3.55761262944407 1.57630235191862 -0.365023321093064 0.3804822 -0.03964366 0.9239382 238 235 235
3.5151038517839 1.58192147920648 -0.368434327027046 0.4629861 0.3179476 0.8273773 231 230 230
3.58239113801087 1.56470950544432 -0.362482672611472 0.03946007 -0.05692154 0.9975985 234 231 228
3.56622758495543 1.55413851430257 -0.361916930249894 0.2091068 0.01159752 0.977824 221 218 215
3.49342203880773 1.54914718047751 -0.339917501384733 -0.6983689 -0.6422501 0.3159046 224 224 225
3.51853109783964 1.56078655350855 -0.34198213395548 -0.3837275 -0.7390289 0.5537052 217 217 228
3.53828931585025 1.54820906385018 -0.36428923420473 -0.06219422 0.118553 0.990998 228 226 223
3.51011292204264 1.61403052052508 -0.355171822214912 0.3609112 -0.5043176 0.7844787 232 229 229
3.52291575087284 1.53431037616132 -0.348073033356745 -0.3400711 0.9011149 -0.2689677 191 189 179
3.503018038679 1.55649863564859 -0.366201350104617 -0.4908563 0.08285163 0.8672921 232 228 226
3.53468186897605 1.53550809801305 -0.360301084781254 -0.3994923 0.6414714 0.6549201 199 200 195
3.52782557445915 1.60104027427142 -0.363247397775213 0.1646901 -0.1236033 0.9785701 242 237 239
3.51122833028391 1.53657042735114 -0.361278525396727 -0.6529359 0.04549879 0.7560453 232 229 225
3.58621942662585 1.58564899602012 -0.36511208448246 0.3968381 -0.007097264 0.9178612 229 225 221
3.49192134156283 1.57235894278902 -0.370016100482493 -0.213536 -0.3308159 0.9192188 236 233 235
3.57208727634602 1.53830117629019 -0.33969726037533 -0.7314038 0.6718613 -0.1168372 195 193 185
3.54436987016067 1.6260666183159 -0.358572109214368 0.7696446 -0.428096 0.4736888 223 220 221
3.52367364510689 1.57606064765993 -0.364672424654628 0.3371145 0.1023629 0.9358823 235 233 234
3.51322705887572 1.55459101457289 -0.350038748625701 -0.4526478 -0.8515603 0.2644901 216 218 214
3.51997051292728 1.62279385781008 -0.355272278284051 0.2176215 -0.7979131 0.562117 219 217 211
3.53168202626162 1.58830696817069 -0.342536948818645 0.2427044 -0.95288 0.1819734 225 222 222
3.58595583274786 1.59041748065447 -0.362115807750742 0.7935274 -0.1278129 0.5949606 222 220 213
3.51999997256737 1.58305140004619 -0.357528694535184 0.5856201 0.6619725 0.467805 230 229 228
3.51508593703722 1.54974761423896 -0.368747881691509 -0.1257949 -0.08839005 0.9881107 229 226 222
3.49228295309411 1.55373096217234 -0.359934691898606 -0.75631 -0.3927739 0.5231862 227 225 222
3.49586376648982 1.60432888704885 -0.352206939473542 -0.5020762 -0.8006438 0.3269387 222 220 219
3.48813534855526 1.56502247395292 -0.354151349771384 -0.9224722 -0.3520455 0.1584585 232 232 232
3.54262926417292 1.53344725756466 -0.354817478165483 -0.7012135 0.6708562 0.2413535 194 192 185
3.54827305971637 1.56627833039777 -0.367833733914877 0.1464596 -0.2039436 0.9679652 241 215 234
3.50943854339658 1.5789615406211 -0.372918488049803 0.3403786 0.01077956 0.9402267 212 212 211
3.52287954207285 1.54934772061606 -0.367649365976728 0.2294274 0.3461508 0.9096937 225 222 222
3.48908987591286 1.57513463111955 -0.348301354135171 -0.1221155 -0.9925085 -0.003837241 223 222 217
3.50218893224553 1.59402979819073 -0.354951089523992 -0.4860888 0.3264747 0.8106368 223 221 221
3.57088898471533 1.55786723459621 -0.367832805444527 0.5551717 0.8105024 -0.1867356 238 236 235
3.57178335047699 1.55322695917238 -0.369174538955591 -0.1218138 0.5868379 0.800489 236 232 230
3.50022668599898 1.59217181906215 -0.35512483030332 -0.2688128 -0.4018563 -0.8753577 222 221 221
3.49742773710661 1.60533784762746 -0.345728838791958 -0.727469 -0.6430892 -0.2392178 204 204 201
3.54531923161215 1.61867765494712 -0.360532099968013 0.100764 -0.1854106 0.9774812 206 204 203
3.57646761693497 1.59206650702453 -0.368178446561691 0.35372 0.1273829 0.9266368 221 220 216
3.53671551895307 1.61048180833849 -0.354262354739946 -0.9531412 -0.1013255 -0.2850529 234 230 230
3.56041057012692 1.58952270096476 -0.366376573492879 0.05060684 -0.08757966 0.9948712 235 231 232
3.59553988625858 1.5832565025223 -0.361999266961281 0.6227776 0.2431057 0.7436717 223 220 215
3.53055445589151 1.61106766575457 -0.360519375911357 0.1285358 -0.1032597 0.9863144 242 238 240
3.48670949476117 1.56955512436527 -0.362555266152387 -0.7310324 -0.6740756 0.1058946 229 227 222
3.56775333625859 1.59504039866195 -0.366355059456797 0.02791682 -0.3136505 0.949128 234 231 231
3.52250430924682 1.60253965189984 -0.364262120184394 0.3315838 -0.1812969 0.9258421 234 232 235
3.55119434460367 1.58650721767396 -0.36655674792844 0.0527558 -0.001123048 0.9986068 237 233 235
3.53971105660567 1.54091557068464 -0.362867865438808 -0.2019792 0.336011 0.9199462 229 228 228
3.56637523026179 1.57647923413717 -0.365514296084069 -0.2178421 0.04760818 0.9748222 233 230 227
3.50861461208792 1.58057111994061 -0.371960860235762 0.4539098 -0.1292168 0.8816286 237 234 234
3.50446100473959 1.60136409680389 -0.363694464455213 -0.1296869 -0.6904861 0.711625 233 230 227
3.49824225632141 1.6074049468477 -0.354336571236232 -0.3112786 -0.7616915 0.5682709 226 223 221
3.56152438506791 1.61783376677331 -0.35878215302604 0.8878906 -0.1354913 0.4396504 219 215 212
3.48979605679668 1.56326104808731 -0.341114092551862 -0.8751525 -0.4690735 0.1186516 230 229 230
3.54377508443108 1.57664168020438 -0.366257833092269 -0.05429568 -0.05234497 0.9971519 252 212 250
3.58467765780422 1.55569369271492 -0.3610666097702 0.02479373 0.1808616 0.983196 230 229 229
3.5383261387528 1.55967658587235 -0.363959061239443 -0.07178378 -0.1705637 0.9827284 246 241 240
3.48686605568682 1.5657777031785 -0.349758712262102 -0.9138283 -0.3996297 0.07220856 216 215 213
3.57405438657726 1.56922853342046 -0.36289481218991 0.07555889 0.3088164 0.9481156 230 227 224
3.54393174529344 1.56236361886397 -0.368338125794429 -0.08342054 -0.2139933 0.9732666 252 208 246
3.54987955619464 1.53826586467398 -0.340141277495852 -0.7618792 0.6220266 -0.1806181 183 180 167
3.51208117856874 1.60843721229323 -0.360644953035863 0.2750168 -0.3024234 0.9126368 235 234 235
3.49593170372765 1.57150900993656 -0.371432142715942 -0.1962151 -0.3953733 0.8973179 222 221 220
3.4907102515123 1.54965385330311 -0.347508847249546 -0.760768 -0.5449226 -0.3525499 211 211 210
3.58414068407395 1.57618380284764 -0.365224872900629 -0.04794502 0.3046753 0.9512488 222 220 216
3.57885401423247 1.56063643073057 -0.361182395498936 -0.3256511 -0.008253454 0.945454 233 230 228
3.54393855464395 1.53671607795532 -0.358844330702903 -0.3736816 0.5673614 0.7338004 208 207 205
3.51018364649286 1.52885272143089 -0.349380471793438 -0.8012797 0.5802407 0.1458474 205 205 201
3.50375369199629 1.61702898474213 -0.351371604376954 -0.03758705 -0.9565318 0.2891955 217 214 211
3.48745420428573 1.57759067627564 -0.366890886029159 -0.5607682 -0.7483819 0.3542084 217 216 213
3.51425193069716 1.53261878197173 -0.360076505110501 -0.6391259 0.2510482 0.7269752 228 225 223
3.51170010110469 1.59020509664697 -0.368436618314066 0.3903786 0.1153977 0.9133936 240 236 237
3.49809666183618 1.54010984722369 -0.35837261273201 -0.8043665 0.2450775 0.5412315 214 214 212
3.49740273467431 1.58810334681144 -0.335041780665836 -0.457074 -0.8882453 0.04586439 204 203 201
3.59024460436466 1.57496657273331 -0.363204455228275 0.01987729 0.2790215 0.9600791 224 221 217
3.56287572540754 1.54465991603263 -0.360008716415356 -0.2669586 0.4318024 0.8615566 218 216 212
3.53807796165449 1.60253882020456 -0.36383252701721 0.1915607 -0.2834488 0.9396602 229 226 225
3.54962932303755 1.590660013629 -0.367146538281255 0.1259317 -0.09437944 0.9875392 231 214 223
3.53423724959556 1.5532871521946 -0.366863687770709 -0.01007549 0.2429336 0.9699906 232 229 229
3.53190615721848 1.56855201687498 -0.364718046771326 0.1670313 0.002848584 0.9859475 251 207 243
3.55712515785228 1.54209178087791 -0.360137535854682 -0.2430085 0.4291686 0.8699202 206 206 202
3.58429953974694 1.54033275775551 -0.336629155968725 -0.7166348 0.6166855 -0.3257816 192 191 183
3.52110706575362 1.61489313644298 -0.361706539232478 0.1406191 -0.4983495 0.8554964 227 225 224
3.53543617328663 1.53869334097278 -0.342321494619462 -0.6925526 0.6573537 -0.2970808 176 173 152
3.57269499492025 1.55414941205468 -0.361480528436314 0.2147995 0.09456045 0.9720697 226 223 220
3.53011565326354 1.55517180656707 -0.366603383406382 0.212699 0.09261025 0.9727191 233 230 227
3.55725904562496 1.54649769484105 -0.361621199163894 -0.2603946 0.4252013 0.8668325 214 212 207
3.5436544091649 1.60979070364793 -0.363103979690909 0.2259983 -0.1157949 0.9672209 235 232 230
3.50983594239365 1.55100036353389 -0.366931322701237 -0.2311593 0.0005319737 0.9729158 217 215 205
3.58050916200521 1.54357230064505 -0.353927721065292 -0.3214437 0.5319502 0.783392 208 204 198
3.54683844805052 1.61148279313436 -0.354713837666598 0.8325797 -0.2411943 -0.4986344 230 226 224
3.54048401519404 1.59581106068893 -0.366823453257549 0.1593736 -0.1154868 0.9804401 228 225 226
3.52536440210646 1.5373616957957 -0.363842753805483 -0.08997954 0.623445 0.7766724 205 204 203
3.57196667028053 1.55128791715476 -0.361288380727619 0.1981765 0.1355476 0.9707487 226 223 219
3.55132750482531 1.57950333162762 -0.3656523090806 0.1642191 -0.06776148 0.9840937 241 238 238
3.5961795436355 1.54438637034186 -0.352690566524353 -0.1552789 0.7509783 0.64181 207 205 199
3.49415930338369 1.59014352615472 -0.359202520222541 -0.06945416 -0.9177011 0.3911531 229 228 228
3.55394789817379 1.58763627134228 -0.366519559024676 0.1065432 0.02738255 0.9939309 237 232 234
3.57087893525145 1.58150372424394 -0.369064623475541 -0.2315438 0.0130143 0.9727374 223 222 221
3.53259416758082 1.55385545784468 -0.366346166064109 0.1353381 0.2497697 0.9588007 229 227 225
3.48734160264413 1.5723777702189 -0.358319657477941 -0.6130562 -0.7785243 -0.1343951 224 224 220
3.53736822343463 1.53975600114174 -0.337900104348606 -0.721715 0.6773658 -0.142489 174 172 158
3.56499676957114 1.55313740039094 -0.362627589629442 0.2686878 0.04696195 0.9620818 230 227 224
3.49046262790682 1.55462979476098 -0.333970389881795 -0.8033036 -0.4314828 0.410519 234 231 235
3.58003822054197 1.56964258782295 -0.362186469194176 -0.1183493 0.1615821 0.979737 217 215 212
3.51862401949449 1.59141096675768 -0.358415400553962 -0.3143509 -0.9220169 -0.2259833 238 235 237
3.56179078756819 1.61867704977008 -0.357017296011223 0.9474468 -0.05618042 0.3149419 216 214 211
3.55943819603666 1.61887797592996 -0.35760054705048 0.8518555 -0.2161131 0.4771136 219 216 215
3.51967110750982 1.60937686853305 -0.361450305242846 -0.1149885 -0.3248354 0.9387543 243 239 244
3.50326783856383 1.55394697669856 -0.341620786398897 -0.1220469 0.6670904 0.7349115 225 223 221
3.5038102963334 1.59050764999199 -0.369146727540862 0.05363237 -0.4116859 0.9097463 235 231 233
3.53242998139263 1.6211237954686 -0.361542630489953 0.08714725 -0.4874662 0.8687819 225 221 212
3.49868877891309 1.54568050716455 -0.363041504664648 -0.5286145 0.06087034 0.8466768 224 224 222
3.56290012146215 1.54213507422285 -0.358839607415814 -0.2670093 0.4626088 0.8453988 204 202 199
3.49481617093726 1.58590042451807 -0.340182241361635 -0.4657207 -0.8613114 0.2030932 206 211 209
3.54439092816491 1.5673217798992 -0.367214590067654 0.1323189 -0.264356 0.955305 251 196 241
3.53230809781548 1.5941668785061 -0.366105295150478 0.1459203 -0.2031504 0.9682134 210 209 206
3.52819093240981 1.60580793419038 -0.363184773652534 0.3501334 -0.1171151 0.9293496 236 234 234
3.48814627086291 1.56586214114274 -0.355461372731624 -0.8965806 -0.4331858 0.09215913 227 227 225
3.57079772821551 1.60443089449704 -0.360891182703907 0.809863 -0.2598566 0.5259244 220 217 211
3.55571972353774 1.59006642161351 -0.36627026834786 0.1770898 -0.042588 0.9832729 232 230 228
3.59758028884359 1.56870147279853 -0.360302271977511 0.008312763 0.3072527 0.9515917 222 220 217
3.56456519303625 1.57046226277672 -0.366452162713313 -0.01775377 0.2492507 0.9682763 231 228 227
3.48953863318021 1.56102468259651 -0.363992140688553 -0.8433799 -0.2461521 0.4776186 213 214 211
3.49416164751182 1.56088395449245 -0.367098778733007 -0.6527499 0.01768829 0.757367 224 223 222
3.60239074737183 1.54818545262295 -0.349625678945864 0.1059137 0.8672401 0.4864945 202 200 195
3.52091565653624 1.60274863967825 -0.363897772586362 0.3329086 -0.3640944 0.8698316 224 223 225
3.49779486906822 1.60264993369225 -0.344745662207726 -0.803485 -0.5138751 -0.3005732 199 199 195
3.50247581993396 1.55786211249745 -0.369551815626278 -0.509668 0.1967168 0.8375804 225 223 221
3.51125634220519 1.62277222783502 -0.349121059985674 0.4482761 -0.7101817 0.542854 223 220 221
3.4935485354225 1.58296052916596 -0.33713366134189 -0.3940347 -0.917609 0.05225271 213 213 211
3.5311399468254 1.5855275938374 -0.365474277844043 -0.1524387 0.03484185 0.9876986 251 225 244
3.4874734910956 1.56957927040799 -0.365488952906548 -0.7086751 -0.5786009 0.4037333 233 230 227
3.57836626925771 1.53768600150592 -0.348368055071881 -0.6896142 0.6798332 0.2495176 197 197 192
3.50549251996026 1.52936444553896 -0.348420553078869 -0.8930856 0.2301993 0.3865312 202 203 197
3.5687257663517 1.53821418905297 -0.354421115796304 -0.6200124 0.712396 0.32875 194 193 187
3.53833223348976 1.62237947996697 -0.362073710538205 0.304926 -0.1858737 0.9340616 230 228 229
3.56821753497987 1.53840110081026 -0.350102564750724 -0.722557 0.6881683 0.06584615 199 199 194
3.52726171521191 1.55990073072332 -0.366382270818265 0.3475565 0.1522027 0.9252236 231 229 223
3.55291883838516 1.58449167449869 -0.366500395066786 0.01690258 0.05094765 0.9985583 240 237 239
3.52569750527944 1.5387185760339 -0.340755532695775 -0.5855218 0.7116674 -0.388193 165 162 142
3.56612853371301 1.60926696275879 -0.358072956117115 0.9645669 0.1437564 0.2212345 179 179 164
3.49453095240913 1.54715667635277 -0.360372073539019 -0.6635373 -0.2537317 0.7038029 213 214 213
3.60129094307522 1.54671146775216 -0.349568456981703 0.06791487 0.8893133 0.4522272 200 198 192
3.55056021857917 1.62096920465074 -0.362737265475713 0.3465444 -0.278025 0.8958845 206 206 206
3.55820444626212 1.57039987847223 -0.367877567789525 0.2617559 0.1286426 0.9565223 233 229 227
3.56652879188032 1.60922586061241 -0.34112769262611 0.9812725 -0.1460749 0.1255646 181 180 169
3.50513882333259 1.54886084835878 -0.366512519070181 -0.3187326 0.03614737 0.9471552 229 228 228
3.57088546827233 1.54932279882313 -0.361370723907115 0.09623222 0.2388309 0.9662811 226 219 219
3.5320852462865 1.56392095123437 -0.36524887734146 0.2009765 0.1096636 0.9734384 231 225 222
3.56179705567272 1.57492746291453 -0.364362625483958 0.1832028 -0.1187497 0.9758766 239 234 235
3.52233754800146 1.61059304729081 -0.363342263311708 -0.008484303 -0.1970383 0.9803591 223 221 223
3.49481562857528 1.5414746606087 -0.357742436502033 -0.8371159 0.03542197 0.5458776 226 225 224
3.50307048349783 1.55871880452994 -0.370502454192946 -0.4653041 0.2159642 0.8584006 226 224 223
3.57524339838683 1.60561489569355 -0.357283856746554 0.9027154 -0.2413698 0.3561538 217 216 210
3.50218756262112 1.563625553883 -0.372266576175122 -0.0895695 0.1961061 0.9764833 235 232 233
3.52197037729833 1.5708953625088 -0.366034503774292 0.419136 0.02858113 0.9074734 234 231 229
3.51424135273766 1.61119671947922 -0.351494178530756 0.06237745 0.6167656 0.7846715 226 224 225
3.50459554384712 1.57141603164929 -0.351332211619825 -0.3295884 -0.7247699 -0.6050456 218 218 213
3.56373652340622 1.55151167081382 -0.362932769992349 0.2131587 0.2125683 0.9536132 231 225 224
3.49168454416048 1.56402465084372 -0.368151725994619 -0.6726442 -0.03936651 0.7389181 226 226 226
3.51990333111142 1.59601982262373 -0.365227314074953 0.2394572 -0.0538144 0.9694144 233 229 230
3.57078200144706 1.55877872594189 -0.361118109956766 0.09900849 0.130053 0.9865513 225 222 218
3.49266865094825 1.5876047734145 -0.366778281316296 0.180115 -0.9255041 0.3331678 212 213 214
3.53183396227964 1.5997422379 -0.35750072698815 0.3301771 -0.916977 -0.2239113 236 234 233
3.57443669701801 1.60435252432192 -0.346620001014669 0.9349983 -0.3010872 -0.1874155 188 187 175
3.49342485957152 1.59644343599479 -0.349381497698334 -0.3086146 -0.9292877 -0.2029323 212 212 209
3.54613164198885 1.53772412628844 -0.342137850175427 -0.7453521 0.619986 -0.2450868 181 177 165
3.49330243759405 1.54038963503106 -0.3425505527948 -0.8212833 -0.5343013 0.2000398 232 230 230
3.54371703927929 1.5991460963868 -0.365718819153931 0.127443 -0.2109176 0.9691605 215 213 209
3.59375823586337 1.54187258985529 -0.345600327008907 -0.3563778 0.9074628 0.2224994 198 197 189
3.52072670556526 1.59736283049207 -0.356424047574952 -0.1392734 -0.4720368 0.870508 235 232 230
3.53547256056323 1.61069013181992 -0.361896309066873 0.03240732 -0.147825 0.9884824 234 232 232
3.51270224066282 1.61760651532679 -0.353648788093003 0.2364424 -0.487233 0.840654 231 228 226
3.48794603869917 1.57751470462976 -0.36185140414222 -0.5951858 -0.8026296 -0.03923868 218 217 212
3.53925783493262 1.61510977820745 -0.362074438959233 0.1147391 -0.05613941 0.9918081 235 232 230
3.50819310041416 1.53136407723932 -0.354021507516384 -0.8520072 0.2606617 0.4540256 222 219 218
3.57390279000337 1.55161104421118 -0.360892487775588 0.1570374 0.1201768 0.9802534 232 225 224
3.49063856374149 1.56000243450364 -0.340216924734474 -0.862851 -0.4192253 0.2823799 222 222 223
3.49093025399217 1.55127871675434 -0.35596635543653 -0.7437231 -0.5475307 0.383518 233 232 231
3.4882401645805 1.57245837010087 -0.354557031154944 -0.5826389 -0.8106281 -0.05843051 217 219 214
3.54936270083932 1.53908136838174 -0.336832646292137 -0.7663255 0.6173232 -0.1779247 174 171 160
3.53477160421361 1.56536435262035 -0.364839491434098 -0.01002689 -0.01399124 0.9998518 242 230 235
3.49663918900666 1.58191303526403 -0.349814446042412 -0.4806414 -0.005482855 0.8769001 215 215 213
3.53524451064382 1.55043962482699 -0.364297862033374 -0.2713798 0.2281271 0.935046 228 224 221
3.58988599767481 1.58543905620849 -0.36371286549621 0.468765 -0.0133872 0.8832214 231 228 224
3.5920720380519 1.55896906750933 -0.358014353834148 0.1113553 0.284384 0.9522215 232 229 227
3.52432640240001 1.55728115885683 -0.367696190951928 0.2652489 0.18093 0.9470519 227 225 221
3.51542856399437 1.54190396769338 -0.367438737971196 -0.3368701 0.08914283 0.9373218 236 232 234
3.54632111642083 1.53804337859749 -0.342111710193388 -0.7542364 0.6149668 -0.230094 181 177 164
3.56023541151178 1.58376833803569 -0.365058419343995 -0.1357361 -0.01493849 0.9906324 245 241 245
3.56776283570369 1.54807526851158 -0.361547090689205 -0.05736374 0.3150856 0.9473281 203 202 199
3.49049563666647 1.55820066690783 -0.359481258805644 -0.8329563 -0.5514067 0.04619911 214 213 207
3.49748029120351 1.59640395660383 -0.356795987349223 -0.00550902 -0.667466 0.7446199 232 230 230
3.51428609689902 1.62379824764161 -0.350211720049888 0.5347724 -0.731651 0.4227355 214 212 207
3.56362885919086 1.59924848517259 -0.364116732801218 0.01452607 -0.1029747 0.9945779 234 232 229
3.53352984444819 1.5607935786147 -0.363907478546137 0.215326 0.03007623 0.9760789 238 233 230
3.51447348502132 1.57860666504713 -0.360168548171573 -0.2953678 -0.469004 0.8323419 228 227 228
3.50250767620232 1.55545106731114 -0.367011384329534 -0.4415938 0.0309383 0.8966815 239 235 235
3.5297351515567 1.55332086007206 -0.374641369468641 -0.6919159 0.7039772 0.160214 235 232 229
3.57270118002372 1.60336119592814 -0.36208761624557 0.7815099 -0.3371581 0.5249444 224 221 217
3.56390699499806 1.60638176734368 -0.355956136577958 0.9902737 0.01225804 -0.1385923 232 230 227
3.5142783625636 1.5705057545567 -0.370091004465694 0.2218164 0.343883 0.9124374 230 228 227
3.51383580957092 1.57904493807027 -0.370569775560657 0.5244044 0.1960187 0.8285993 204 204 201
3.5467892382495 1.61873095446083 -0.361933640196727 0.003600026 -0.1769876 0.9842065 204 202 201
3.49051064637801 1.54592509377076 -0.353764297382278 -0.808383 -0.4720421 0.3517002 230 228 225
3.50805581226163 1.56599402247478 -0.369248459286096 0.1117672 -0.1313534 0.9850149 231 227 225
3.51632851794735 1.58558266062019 -0.359596740125939 0.08054117 -0.9934866 0.08060712 238 234 234
3.57387388243574 1.57937144431646 -0.36896060923105 -0.1788107 0.2794243 0.943371 213 213 212
3.54800475702202 1.55109227850605 -0.366073981035822 -0.3392206 0.1213592 0.9328458 221 222 219
3.54386483478496 1.56768174549478 -0.366813893635386 0.1060216 -0.2443782 0.9638665 252 204 247
3.54005592618033 1.60070004574802 -0.364835015082366 0.1929204 -0.2858633 0.93865 233 230 230
3.50545538827607 1.61416175839091 -0.340829751441744 0.2955356 -0.8479704 -0.4400056 208 206 204
3.54997350312463 1.62204862052313 -0.362374365352234 0.4172453 -0.2961484 0.8591871 216 216 217
3.56433610293209 1.60087235174459 -0.364482951534534 -0.04647252 -0.01324292 0.9988318 231 229 227
3.54290499670899 1.60823567365277 -0.363445345383609 0.2133827 -0.1659442 0.9627722 234 231 231
3.51860579907347 1.60770935114764 -0.349685291274327 -0.1824344 -0.09750652 0.9783712 228 225 226
3.49651478515414 1.58720486977879 -0.343814259613346 -0.3837362 -0.9229215 -0.03102469 216 216 217
3.5666068014035 1.59215935879555 -0.366475933148933 -0.01435944 -0.253471 0.9672364 237 234 235
3.60515323021839 1.55665337885894 -0.338801101537373 0.4397896 0.7008896 -0.5615504 181 181 170
3.54170263567678 1.62555614693915 -0.349258879489627 0.7105631 -0.6547796 -0.2576119 213 209 204
3.53249465137407 1.59330401796661 -0.366326965486004 0.07709185 -0.121815 0.9895544 214 212 211
3.55016004035514 1.53925084295983 -0.334086490826477 -0.7266306 0.6462007 -0.2333083 171 167 149
3.53622800749008 1.58391977826452 -0.366139014432259 0.027604 -0.02078283 0.9994029 241 228 236
3.50107869238181 1.55636345617652 -0.366514362561133 -0.5170034 0.03745717 0.8551634 238 234 234
3.49374455556296 1.5960020726442 -0.348075820670748 -0.3890694 -0.8577717 -0.3359357 200 203 197
3.48771240227725 1.56625165921209 -0.345634845408027 -0.9498203 -0.284565 -0.1298618 202 202 198
3.60211399825842 1.56065297310023 -0.355392518898633 0.2552934 0.6211181 0.7409707 211 209 204
3.55212539551795 1.60013309209698 -0.365165023584049 0.2497192 0.0280732 0.9679112 213 210 205
3.5297873369119 1.5468086763615 -0.362917670987231 0.009878922 0.3448413 0.938609 212 209 204
3.49549672402346 1.56224113446538 -0.369055005975724 -0.6746041 0.03400129 0.7373962 224 224 223
3.53376715576786 1.60568192909597 -0.36315193573332 0.111389 -0.2662171 0.9574555 232 229 229
3.51167588436028 1.55187417488477 -0.347773153270039 -0.1223357 -0.6673359 0.7346406 215 214 215
3.5612062083887 1.54813334040018 -0.362678173024271 -0.1875616 0.424492 0.8857918 197 199 193
3.51356779693576 1.62491987471566 -0.348028614222172 0.5519324 -0.7144428 0.4300488 202 199 199
3.54203176123417 1.57513266634989 -0.365600068825961 -0.101414 -0.0474268 0.9937132 253 209 251
3.5510669019042 1.5437377263511 -0.361427726385295 -0.1410904 0.3895915 0.9101164 206 203 201
3.50500055288839 1.58776023847614 -0.353521072498035 -0.3373472 -0.4857455 0.8063796 226 227 225
3.52473863574812 1.54042531194433 -0.365772495285821 0.196845 0.4979199 0.8445873 222 222 219
3.5508853480593 1.58444176308847 -0.366199976314404 -0.01336411 -0.007869092 0.9998797 235 233 233
3.56140781879169 1.58887454221559 -0.366075006554225 0.003545557 -0.09356234 0.9956071 234 230 231
3.54664962212825 1.62639759390909 -0.353418580185423 0.7342694 -0.6631852 -0.1450302 206 203 195
3.52112927781935 1.59235246233812 -0.366033857860004 0.1982363 -0.08258112 0.9766692 232 228 229
3.50349341936163 1.61357878103683 -0.341678703444631 0.2653599 -0.9183401 -0.2936589 212 210 207
3.59663220518973 1.58652887424351 -0.349912360280347 0.9399153 0.08256035 -0.3312748 171 168 150
3.50697826529221 1.60046937851725 -0.357427576012785 0.4991177 -0.04571189 0.8653277 236 233 232
3.54037933494594 1.61055602661852 -0.351168721031376 -0.1915286 -0.162889 0.967876 224 221 221
3.51507070568746 1.53223622412934 -0.343582500011689 -0.3871986 0.8537029 -0.3482364 164 165 143
3.49732242812085 1.60131139323862 -0.350466344693867 -0.4795879 -0.8760818 0.0497599 207 206 201
3.58279672254983 1.57052167044878 -0.363777713484471 -0.201451 0.2046397 0.9578831 233 230 228
3.51877619434715 1.5719337482054 -0.366539450858492 0.5844188 0.271492 0.7646873 239 235 238
3.4923175893178 1.54129463518378 -0.349531771256021 -0.9549617 -0.2857911 -0.07982236 220 218 212
3.50999369422386 1.54851489475421 -0.366729376595251 -0.2272749 -0.0708738 0.9712482 225 223 218
3.52931775567419 1.60580075777754 -0.36386869833227 0.3117858 -0.1572575 0.9370484 229 227 227
3.51009720656649 1.60681222797762 -0.350149040780613 -0.1347068 0.4735488 0.8704054 227 226 223
3.5324929946874 1.60805766509399 -0.362258518744321 0.06793429 -0.2939001 0.953419 236 232 233
3.56940796632368 1.5431111502584 -0.359322664685678 -0.23889 0.4772001 0.8457019 208 208 205
3.52587606457386 1.5460378773369 -0.365079259116388 0.301953 0.4933149 0.8157603 226 223 224
3.48565405963906 1.57251857812935 -0.347271712201512 -0.336202 -0.9416274 0.0174932 220 218 218
3.52157162105583 1.6243927499305 -0.354896306318434 0.2579821 -0.8384825 0.4799921 213 210 205
3.57264079503941 1.56365527502068 -0.368514382012161 0.2174198 -0.4013867 0.8897288 232 228 227
3.54419082708515 1.55166289905353 -0.363880886107402 -0.2123494 0.09372193 0.972689 236 233 229
3.53673114123166 1.53503213929768 -0.351609965870659 -0.8269215 0.560875 -0.04025079 193 193 184
3.54878395852152 1.57089045425004 -0.366430122501557 -0.06999312 -0.1744675 0.9821721 243 232 235
3.56798564192965 1.58048825222094 -0.367710156347073 -0.3090481 0.02643971 0.9506788 216 216 211
3.54363524588121 1.59861722748091 -0.35744143946795 -0.1969504 -0.9789587 0.05338928 234 231 229
3.57881321067368 1.57260972734483 -0.364045883020353 -0.218748 0.288251 0.9322342 229 226 224
3.55829716692507 1.61969922386911 -0.348840867296524 0.9203959 0.01561535 -0.3906759 195 194 184
3.49274224359449 1.56318276621299 -0.367957357050629 -0.6675467 -0.04223568 0.743369 234 233 233
3.49368941207324 1.58201948251126 -0.3416352333147 -0.3214681 -0.9447834 -0.06358076 219 220 219
3.58054297579759 1.57747256551541 -0.366322529420382 -0.02738959 0.3464158 0.9376811 223 220 218
3.49572093247598 1.53375425632688 -0.339357951360911 -0.9630077 -0.02023869 0.2687128 226 228 229
3.60099084350543 1.57640696031666 -0.345749560688927 0.9215088 0.01555635 -0.3880458 190 188 175
3.51484204984194 1.56737932331969 -0.369861458278151 0.2631796 0.2058565 0.9425283 233 232 231
3.55830946914305 1.54080437197301 -0.333813351454642 -0.630228 0.7255534 -0.2763782 186 185 176
3.606880071321 1.5524093428209 -0.347635186125047 0.2970112 0.8628861 0.4089155 195 196 188
3.53691680165756 1.53575115592306 -0.357101682084207 -0.6310206 0.7064987 0.3204255 192 192 181
3.5448026163459 1.53899263658242 -0.340162197777326 -0.7261829 0.6533694 -0.2139317 168 167 148
3.51850521239003 1.57420899580008 -0.367726235358137 0.522109 0.3846213 0.7612284 234 230 230
3.55750013322274 1.60165174052202 -0.364699576911964 0.1057978 0.1564626 0.9820012 231 229 226
3.48651444701973 1.56446586378133 -0.335341134576868 -0.606114 -0.7792417 0.1593997 211 209 209
3.50981584483662 1.60149215716243 -0.365913561769998 0.4706219 -0.4903374 0.7335423 219 219 217
3.48602361385057 1.56675243304562 -0.35184264387522 -0.8208714 -0.4986919 0.278346 220 221 219
3.48862045800179 1.55913955948632 -0.334862330790453 -0.7994401 -0.4541819 0.3932101 222 222 224
3.48849377237199 1.56309059828082 -0.33803943774622 -0.7040205 -0.6600797 0.2620114 229 227 227
3.4895083600188 1.56479710005958 -0.337937646859666 -0.6210765 -0.7714215 0.1384662 226 226 225
3.49099989175791 1.55281511371133 -0.33485013876798 -0.7943816 -0.4530952 0.4045524 226 228 229
3.4921320398126 1.55297273955922 -0.336803997503189 -0.7948823 -0.451605 0.4052345 232 231 234
3.4923039729503 1.5532264183028 -0.337481375274709 -0.7976477 -0.4678081 0.3806753 235 234 237
3.49118665575739 1.55220735946167 -0.337189823516597 -0.7750555 -0.4950602 0.3926885 229 229 233
3.48875913674237 1.55749520494742 -0.333909367858821 -0.8147027 -0.4028282 0.4171197 217 217 219
3.48960473984178 1.55670954415995 -0.334303764680837 -0.8200812 -0.3925266 0.4164009 225 225 228
3.49121236629509 1.55577084685899 -0.335550340627828 -0.8013139 -0.4352877 0.4103907 232 230 233
3.48887289463429 1.56290057817071 -0.339541697744927 -0.7621436 -0.6160901 0.1989224 225 226 225
3.49008572994177 1.56201173705926 -0.340827268537417 -0.8421149 -0.4958616 0.2120465 226 227 229
3.48980956410194 1.56321094979901 -0.342481073195321 -0.8909502 -0.4490842 0.06731364 225 225 226
3.49128109091664 1.55883601914873 -0.340152407992723 -0.8713839 -0.3925751 0.2942361 233 230 233
3.49139525477036 1.55801141589642 -0.340182214716812 -0.8878089 -0.3617319 0.2845091 229 229 230
3.49203872051685 1.55601216236648 -0.338625187119926 -0.8418198 -0.4075072 0.3539454 228 228 230
3.49283340625246 1.55505279114436 -0.338992595680055 -0.8280412 -0.4413001 0.3458352 225 226 226
3.49187932666821 1.55714679861716 -0.341368031958608 -0.8876103 -0.4054549 0.2185276 227 226 226
3.49220688464474 1.55635224914768 -0.344072362437129 -0.8822043 -0.4564086 -0.1157877 217 218 216
3.49193779634451 1.55653676046113 -0.342020576910843 -0.9017879 -0.4211779 0.09689069 224 223 223
3.49234856487948 1.55462596723728 -0.343624938764708 -0.8470264 -0.5192037 -0.1139024 214 216 213
3.49303208651552 1.54480082518867 -0.33287857989516 -0.8104208 -0.5478092 0.2076611 226 227 226
3.49315732845429 1.54237810968478 -0.333264707546366 -0.8403781 -0.5409107 0.03435561 228 226 226
3.49362504097607 1.54319130999738 -0.334081974868208 -0.7885748 -0.6041207 0.1148386 217 218 216
3.4939385721622 1.54151138502812 -0.333552832109769 -0.8121725 -0.5821375 0.03862306 223 222 224
3.49323011164404 1.54385392362195 -0.33495940794725 -0.7885748 -0.6041207 0.1148386 213 214 212
3.4927428452396 1.53982340816039 -0.33714802520585 -0.7928333 -0.6075681 0.04771031 211 210 212
3.49323554972122 1.5443693824705 -0.337760180578685 -0.7204228 -0.6907039 0.06260223 220 220 218
3.49254562959612 1.54246024245234 -0.339698251179124 -0.727024 -0.6788073 0.1032318 226 226 227
3.49305078939545 1.53912585964841 -0.339653338783437 -0.8282914 -0.5551837 0.07552776 232 232 236
3.49257007516035 1.54477952679744 -0.340285827504809 -0.6613884 -0.7302006 0.1713837 222 222 223
3.49370333297945 1.54318548098307 -0.341681504390678 -0.6908249 -0.7072313 0.1502824 229 228 229
3.49392888024433 1.54058375862116 -0.343334300307924 -0.853918 -0.4538297 0.2546814 224 225 225
3.49235486001701 1.54750965343081 -0.333884839220095 -0.8134073 -0.5559966 0.1709865 227 227 228
3.49078532565844 1.55023968902965 -0.335016332552524 -0.7744586 -0.5319983 0.3423325 230 231 232
3.49275660174835 1.54796389771148 -0.335183671594086 -0.7938353 -0.5718325 0.2069614 222 223 225
3.49365236083715 1.54625706885826 -0.338084418840559 -0.8001922 -0.5357159 0.269631 216 217 217
3.49328668634263 1.54649257904059 -0.339735967256712 -0.6889351 -0.6985412 0.1934128 219 220 221
3.4940239311184 1.55145583701766 -0.342193159400107 -0.7797462 -0.6229098 0.06308055 221 221 220
3.4931386385422 1.54739440186176 -0.342130420376495 -0.732474 -0.6789025 0.05072711 227 227 228
3.4957066894388 1.5489093907791 -0.34277366532611 -0.5942363 -0.5955006 -0.5406129 215 215 216
3.49400778061487 1.55203441578302 -0.343701922720279 -0.8127537 -0.5764595 -0.08441545 213 214 214
3.49335557132008 1.5454786871807 -0.3425386573246 -0.6574407 -0.7388595 0.1478462 232 231 233
3.50201419856273 1.55038383981605 -0.343462214602146 0.07965129 -0.4511599 0.8888816 225 224 218
3.48841281980719 1.56273250907976 -0.348356785154551 -0.9212379 -0.3829476 -0.06835026 221 220 221
3.48708236014215 1.56376578891649 -0.349333392448192 -0.9313166 -0.3640426 0.01106688 219 218 217
3.48756883479357 1.56425803120205 -0.348965572298923 -0.947107 -0.3209109 0.002125988 219 218 217
3.48839407507491 1.56369080289016 -0.349019600795612 -0.9353095 -0.3529118 -0.02548602 217 217 217
3.48958069535717 1.56081226531303 -0.348193893052671 -0.8915808 -0.4485927 -0.06203439 221 222 223
3.49010591217728 1.55114568547436 -0.348214846412089 -0.7489126 -0.5816728 -0.317469 211 210 210
3.49140649415279 1.5587080158093 -0.344526452128258 -0.8776093 -0.4725584 -0.08056367 216 215 216
3.49067933204288 1.55723926569573 -0.347272020470804 -0.7618086 -0.6135327 -0.2079069 216 216 215
3.49034448633928 1.5580158416773 -0.34937465540901 -0.784448 -0.6113166 -0.1045628 224 224 224
3.49143039135075 1.55363314212488 -0.347188654245693 -0.7441089 -0.5886369 -0.3159248 210 210 207
3.48912938999005 1.5585390489582 -0.352176002326827 -0.7340536 -0.6660073 0.1326635 226 225 224
3.48906644170988 1.56048312709725 -0.35015938937869 -0.8755425 -0.4807012 0.04849474 227 226 228
3.49012933455506 1.56049639634843 -0.352868070841762 -0.7704214 -0.5687536 0.2880455 228 229 230
3.49018927758506 1.55977091690001 -0.353785583881257 -0.649909 -0.7486426 0.130968 226 227 228
3.48926013859259 1.55560558949274 -0.350412467854259 -0.7136045 -0.6988657 -0.04853381 222 222 221
3.48881366074589 1.5527062993282 -0.350378755590463 -0.7284857 -0.6850609 0.0003905203 223 221 221
3.4894463975894 1.55146621183175 -0.349727947493585 -0.7340776 -0.6789306 0.01354304 220 218 218
3.4893536122487 1.55331641822159 -0.351991235023255 -0.7162787 -0.6962731 0.04635426 228 226 225
3.48972293026596 1.55426375210487 -0.354462364020855 -0.7013465 -0.6722263 0.2371181 221 218 215
3.49041602304958 1.55077958781496 -0.351622268843983 -0.7644331 -0.6352313 0.1101059 229 228 224
3.49031558990015 1.55129408339637 -0.353925634774389 -0.76205 -0.599345 0.2450823 231 230 228
3.49005403395372 1.55810437051962 -0.349501910597701 -0.8155726 -0.5694778 -0.1026471 225 225 224
3.48979093917487 1.55503365124175 -0.352788479192178 -0.7081258 -0.7010908 0.08384213 222 223 217
3.49014473997993 1.55698511174145 -0.354675505378495 -0.6760516 -0.7206489 0.1536864 220 219 215
3.49438447710138 1.53896694373731 -0.343502068058632 -0.8900769 -0.3992733 0.2198724 230 230 232
3.49468000201313 1.5395208657407 -0.345305431047445 -0.8931812 -0.3581275 0.271978 220 219 220
3.49411295081361 1.53993503652547 -0.346444040522576 -0.979582 -0.1981117 0.03421795 213 210 208
3.49106378045035 1.54446641369954 -0.349842452139407 -0.8871083 -0.4458354 -0.1194563 204 204 205
3.49030944001683 1.54488228716562 -0.351333201810602 -0.8751604 -0.4792569 0.06638545 209 210 203
3.49292234488807 1.54029189697002 -0.349464461921847 -0.9968153 -0.07439679 -0.02871349 219 216 211
3.49340026125244 1.5401805587527 -0.35186305001114 -0.9602739 0.09612037 0.2619828 222 220 215
3.49098223542099 1.54336407407347 -0.352221362128673 -0.9221991 -0.3365506 0.1904794 218 217 210
3.49200693086977 1.5418513911883 -0.352158036172126 -0.9540103 -0.2312485 0.1907575 225 223 214
3.49180616560424 1.54196690474351 -0.353725196285494 -0.9160565 -0.2043212 0.345099 228 226 220
3.49141601419629 1.5439304423986 -0.354142410970718 -0.8643493 -0.3397654 0.3707556 238 236 233
3.4987779937211 1.56909886366447 -0.373690195552045 -0.06074398 -0.08990285 0.9940964 237 233 235
3.48630738916656 1.56954661767421 -0.351918846091965 -0.6079158 -0.7283054 0.316243 216 215 212
3.49512732767085 1.53959107005705 -0.352973558080789 -0.9310041 0.2316957 0.2820432 222 220 215
3.49428811942141 1.54415962546766 -0.344094166623933 -0.7159205 -0.6970665 0.03944691 202 207 209
3.49360454628949 1.54557128444764 -0.346970187128566 -0.803306 -0.5385225 -0.2543481 208 208 206
3.49009607449451 1.54801256681398 -0.350655935554916 -0.8217862 -0.5672402 0.05390725 221 222 217
3.48995801918061 1.54774542804195 -0.350999940860096 -0.8372333 -0.5387475 0.09376346 225 224 220
3.49017572794124 1.54796571795347 -0.352810577808614 -0.7895853 -0.5708795 0.2250593 220 219 213
3.49121628110701 1.54723393044565 -0.354795526893589 -0.792777 -0.4917061 0.3601801 224 224 223
3.53109455765705 1.54134331243555 -0.36176524746585 0.008623752 0.2660891 0.9639099 230 228 227
3.59074131197188 1.59306071128269 -0.35487355554271 0.9530585 0.02900109 0.3013942 216 215 209
3.49193261650111 1.56982082429921 -0.351932485782239 0.3789848 0.1127295 0.9185111 217 218 213
3.53627127412228 1.61933802384028 -0.355605198273814 -0.9047076 -0.1513123 0.3982571 228 223 220
3.48753906308224 1.56843457960155 -0.354580894074755 -0.6647608 -0.7454808 0.04849206 215 214 214
3.54098914313991 1.62589650527449 -0.352238426448805 0.7338835 -0.6511002 -0.1936068 213 209 203
3.4884622046372 1.5747544963341 -0.368262269625309 -0.4191248 -0.513796 0.748564 230 229 227
3.50373094675705 1.60518268310428 -0.360152525711654 -0.1562132 -0.7669975 0.6223442 235 232 228
3.49749155206188 1.57334232995154 -0.372723284660848 -0.09977411 -0.3171411 0.9431154 239 236 238
3.53997008382943 1.53556874322034 -0.347934660161186 -0.7448933 0.5982714 -0.2953056 180 179 159
3.4919088833395 1.59295479522817 -0.353608841480881 -0.2915262 -0.8645223 0.4094064 227 226 226
3.48745078683999 1.57685425152911 -0.357300165757854 -0.5516589 -0.7979707 -0.2427247 220 219 217
3.52665966866489 1.59624870839083 -0.365093646047913 0.2073582 -0.325155 0.9226466 230 228 226
3.49272163305817 1.57202144804761 -0.369853379635678 -0.2088898 -0.3445045 0.9152495 241 239 239
3.57228431590866 1.60478783266801 -0.36028570131105 0.8379999 -0.2768678 0.4702131 223 221 216
3.56494644235113 1.59534458933178 -0.365770304712748 0.03220618 -0.3383877 0.9404555 237 234 234
3.50983974789584 1.59425027192588 -0.368450848829694 0.3393061 -0.07118807 0.9379784 233 232 231
3.50557236585308 1.53530905714697 -0.356628801124219 -0.8347952 0.06653614 0.5465252 223 224 222
3.52283291411709 1.56227118584388 -0.367945658512377 0.3177507 0.05587123 0.9465268 226 223 221
3.60538316396427 1.56823133679159 -0.355074042895418 0.4303454 0.6657449 0.609579 193 193 184
3.5602698720291 1.58746821062405 -0.366183383270343 0.03348456 -0.03585148 0.998796 241 237 239
3.53738225870204 1.53909031761074 -0.361219961210673 -0.2861235 0.4015221 0.8700076 222 221 219
3.55380152182279 1.61731738076246 -0.364560097569205 0.3005918 -0.4227439 0.8549457 220 217 211
3.53861570666239 1.55880111370077 -0.365118694125717 -0.1475733 -0.2071539 0.967114 244 241 243
3.524918651799 1.57210985567743 -0.365755203295623 0.4179824 -0.03552175 0.9077604 234 231 229
3.52952873648723 1.59897117877105 -0.364274614231157 0.1534165 -0.3110804 0.9379191 237 234 235
3.53194837630097 1.57841025050477 -0.365622167442397 -0.2214278 -0.07891556 0.9719784 238 235 236
3.49124886838679 1.56114053056444 -0.365748727936007 -0.653649 -0.1000842 0.7501507 225 220 224
3.57092924228526 1.60679483580876 -0.348982369346568 0.9314418 -0.3077669 -0.1941539 195 194 184
3.50364488543096 1.55451970623901 -0.367541904894228 -0.3766384 0.07233263 0.9235321 238 235 234
3.56072076222351 1.54152334158194 -0.333658778335444 -0.6640406 0.7030478 -0.2545071 188 187 180
3.51747068973593 1.55942671220993 -0.370202010500321 0.2475072 0.1048728 0.9631936 219 217 217
3.49494962038052 1.53558700761461 -0.335928071459791 -0.9580366 -0.2690257 -0.09894957 213 213 210
3.50107714584983 1.5317378874763 -0.333063574505894 -0.8687021 0.375658 -0.3228589 195 194 188
3.49533890487855 1.53296933315781 -0.337785932713946 -0.9956644 0.01595166 0.09164108 228 227 227
3.49417812191791 1.53761086753338 -0.337657045960612 -0.9020525 -0.431539 0.008679218 231 230 233
3.49441289846715 1.53523513474942 -0.337645139809949 -0.9530443 -0.3023569 0.016937 227 227 227
3.49544959358559 1.53602914275649 -0.338654455603235 -0.952341 -0.2535741 0.1695487 230 230 234
3.49428827891297 1.53714869330897 -0.340335816181865 -0.8762355 -0.3664587 0.3129207 225 227 232
3.49433635950287 1.53757976876722 -0.341123643608782 -0.8933566 -0.3519108 0.2794152 228 229 231
3.49482232311885 1.53595221598269 -0.341286900980109 -0.911333 -0.2881027 0.2940562 221 223 225
3.49675010752939 1.53364835878262 -0.342427375365403 -0.9092854 0.009694095 0.4160602 194 195 198
3.49690079786489 1.53186318831756 -0.338921427101982 -0.9820409 0.09489585 0.1630657 224 224 223
3.50113909629435 1.52980339902897 -0.338273294858728 -0.867657 0.4962759 0.02969062 217 214 214
3.50160638819394 1.53008501871947 -0.340185017251701 -0.8819489 0.4674159 0.06073319 209 208 206
3.50136312288494 1.53103719024567 -0.341494392020819 -0.9336858 0.3140077 0.1721333 204 203 199
3.5019187747692 1.54161896036368 -0.336943749667898 0.04868472 -0.04321 0.9978791 226 227 229
3.50255925401066 1.53831533817989 -0.338101270693545 0.573505 0.3816305 0.7248794 224 224 224
3.5039673638252 1.53119926487819 -0.334435267529454 -0.8248008 0.4771701 -0.3033355 177 175 165
3.50354434004909 1.52975139793992 -0.335801962301103 -0.7632921 0.6317215 -0.1353258 180 180 169
3.50533031317161 1.52939152804263 -0.337289510910169 -0.6461715 0.737941 -0.1946936 178 178 170
3.50838734225648 1.52770440608849 -0.333704878463456 -0.3778543 0.8499605 -0.3671421 205 203 200
3.50546964889716 1.52915009090409 -0.339573702955325 -0.6216395 0.7828338 0.02712041 194 194 187
3.50694911717665 1.53036023871435 -0.340121084703812 -0.555099 0.8289023 -0.06918082 191 190 184
3.50249135235089 1.5293711533163 -0.340359207558471 -0.8766317 0.4708024 0.09930699 206 206 202
3.5040458768592 1.52879294739359 -0.341706839960704 -0.7886619 0.5926688 0.1635731 214 212 212
