ply
format ascii 1.0
comment File exported by Rhinoceros Version 7.0
element vertex 496
property float x
property float y
property float z
property float nx
property float ny
property float nz
property uchar red
property uchar green
property uchar blue
end_header
4.38089106174725 2.21857448461192 -0.367980268821794 -0.3207258 0.9197639 -0.2262066 212 210 205
4.4188686233704 2.23049216992773 -0.378660648684232 -0.3797936 0.7921718 0.4777245 219 219 218
4.40430565112458 2.22587655801055 -0.366542369932101 -0.1585747 0.9420325 -0.2956836 211 210 205
4.32472916675159 2.22469422119613 -0.381529350915159 0.886898 0.3690841 0.2778287 208 210 211
4.34738851260566 2.26313696261408 -0.372230995455892 0.8188176 -0.5575759 0.1365532 185 185 180
4.32442915919251 2.22338844509368 -0.37944142793486 0.8545009 0.4861955 0.1828719 204 207 206
4.42153378480081 2.24028447379974 -0.380346705852479 -0.9815304 -0.06458319 0.1800751 207 207 203
4.41313296760133 2.26219031127099 -0.388343374973825 -0.8108896 -0.1509081 0.5654067 210 208 204
4.4209988007658 2.23271099005436 -0.379059079911581 -0.621087 0.5328397 0.5747459 223 222 218
4.36104793037997 2.27195246003662 -0.380797183684585 0.8810087 -0.3914851 0.2656372 181 183 173
4.37735074008076 2.28504122736982 -0.393581590115978 0.3212883 -0.6908442 0.6476945 190 188 183
4.3678396997093 2.21320048955421 -0.367125024094274 -0.3175636 0.9175165 -0.2394095 211 209 206
4.39178904837184 2.29040151762505 -0.392571312331607 -0.2626554 -0.5208873 0.8122122 189 188 179
4.35060923979797 2.26402137409351 -0.365327185608751 0.7200882 -0.5924268 -0.3612526 168 171 158
4.3665730488214 2.28114799671766 -0.370759506378777 0.8449512 -0.5348384 0.00234679 177 178 169
4.39382077231188 2.25468245975698 -0.397044726499308 -0.1239725 0.800631 0.5861918 177 178 178
4.31966821605302 2.23751163071672 -0.372172747733486 0.9428301 -0.3262953 0.06784245 178 181 174
4.32373668195561 2.23016622915179 -0.38455845706652 0.9074647 0.2950674 0.2990704 189 191 189
4.35962306198431 2.26659223865779 -0.379067913691583 0.8586159 -0.3491547 0.375326 185 187 177
4.39976146416944 2.25609698501653 -0.396222296907907 -0.343324 0.3685205 0.8638989 210 207 206
4.40872714787896 2.23445736207418 -0.391170684434852 -0.3423222 0.3264648 0.8810427 212 210 204
4.4214969005321 2.24051335466053 -0.375542283559542 -0.9408848 -0.1891426 0.2809998 216 215 211
4.37792639555088 2.22797456250495 -0.354573001956711 -0.579297 0.6268253 -0.5210614 207 206 200
4.41981443662405 2.23742212907693 -0.383267554677677 -0.8246714 0.2612797 0.5016472 222 220 216
4.35773848000924 2.21593995383757 -0.35789442546435 -0.01359322 0.8279816 -0.5605906 202 202 196
4.34368096528492 2.25202409942204 -0.384624367054339 0.4856239 -0.8135561 0.3198372 192 194 188
4.37029076277668 2.21424508960612 -0.37116688219395 -0.3300157 0.9436898 0.02322141 215 214 209
4.39814590845431 2.22681474398102 -0.362572927733879 -0.2167238 0.8522806 -0.4760762 207 206 202
4.36412225941316 2.27991790496895 -0.365433868363591 0.9098408 -0.3953033 0.1261944 179 181 175
4.3956162348191 2.22150778206254 -0.37461608262424 -0.3206781 0.899384 -0.2971094 211 209 205
4.38857964140895 2.28570092396179 -0.396175517933694 -0.07432606 -0.3387769 0.9379263 224 222 219
4.41340437614245 2.22890952613317 -0.365291723748983 -0.235584 0.9384945 -0.2524445 208 207 204
4.36316170462358 2.24372954393373 -0.395033342969243 -0.08096535 -0.02234446 0.9964664 210 192 199
4.33180974464807 2.23852640434594 -0.390461861806318 0.4155409 -0.1356556 0.8994017 204 203 197
4.35854100791308 2.26872936870887 -0.377548416458105 0.7583291 -0.3529759 0.5480374 186 187 180
4.33543385871337 2.21268987781816 -0.385181806744767 0.55657 0.763773 0.3269261 204 205 200
4.36100569966982 2.27500320084558 -0.371703396258053 0.8396092 -0.5431817 -0.003164152 182 183 173
4.39026142598136 2.22168530379824 -0.387941235038004 -0.2336385 0.659449 0.7145208 214 214 209
4.32429246248787 2.22055959760119 -0.367427459297348 0.7119731 0.6822355 0.1662801 202 205 201
4.35413643130745 2.2378327181735 -0.395728885004008 0.1035215 -0.003482349 0.9946212 194 194 188
4.32432584356581 2.24346062927045 -0.373566821075442 0.5609211 -0.7972838 0.2229486 189 190 183
4.32198854873768 2.24099938985783 -0.374563650013372 0.7688522 -0.6062176 0.2033876 190 192 187
4.34724776042227 2.21326593908855 -0.391047526179134 0.07766921 0.7743858 0.6279284 217 217 213
4.35601812887549 2.26636648011955 -0.362366506695079 0.6421883 -0.6196401 -0.4512653 169 173 160
4.4007046761897 2.22258430783691 -0.382295564226333 -0.3727949 0.9170702 0.1414435 223 220 216
4.4258840575547 2.23956156237768 -0.362842644010847 -0.7944288 0.5363887 -0.2849037 205 203 198
4.38541120302171 2.29602829601697 -0.3859709325519 0.7265798 -0.6175095 0.3012701 191 191 186
4.42670631989531 2.24136623448965 -0.361157499377279 -0.8539259 0.3607537 -0.3750564 209 207 201
4.33699910907423 2.24818205020195 -0.371135008464129 0.6156185 -0.6536788 0.4401339 182 182 168
4.3965920882916 2.28615780645084 -0.39192495934978 -0.6760355 -0.3347339 0.656452 216 214 209
4.42476767442064 2.23630040129691 -0.365342042324694 -0.8241416 0.4571953 -0.33431 207 206 202
4.383433091527 2.23909247720014 -0.390359112190289 -0.1981911 0.137646 0.9704503 225 216 215
4.37161508415063 2.29058787859897 -0.367378055844609 0.6957204 -0.6966814 0.1749519 179 181 172
4.35947146083857 2.22517673608897 -0.394373022577851 -0.2781594 0.0772255 0.9574255 216 208 209
4.37930384809088 2.29316493718078 -0.373466983941276 0.4088487 -0.8635635 0.2951284 184 184 176
4.39079780715923 2.304783640946 -0.36858220865761 0.3389972 -0.8065304 0.4843445 184 185 176
4.41670591781539 2.2384410508371 -0.353034224728087 -0.4292051 0.4901334 -0.7586516 201 198 195
4.38452139661846 2.22019587486299 -0.365985534008804 -0.2301266 0.8906848 -0.3920744 224 223 220
4.39798971836978 2.30342145437951 -0.372261642388883 -0.3826755 -0.8626906 0.3306423 180 180 166
4.36594284412528 2.28435680016556 -0.364760099835869 0.8859125 -0.4530003 0.09974891 178 179 173
4.34868686227766 2.25437030562667 -0.386835170505039 0.7379427 -0.6360703 0.2255108 192 194 188
4.3693079676456 2.27711377197455 -0.394646884844608 0.7484991 -0.2964139 0.5932014 191 193 189
4.36812427171529 2.23526661062837 -0.394260792003128 -0.2176442 0.1197373 0.9686558 213 210 206
4.3981708522218 2.28244985336898 -0.392564042297043 -0.7342075 -0.2487709 0.6317059 216 213 208
4.38173291456174 2.30099959508596 -0.363164181621846 0.5833713 -0.7199844 0.3758994 176 178 167
4.3799932325737 2.25728789694005 -0.396050107560722 -0.1402579 0.06210624 0.9881653 191 191 183
4.35778887485716 2.25334208508219 -0.396738434439986 0.2285772 0.1283505 0.9650278 203 203 197
4.32629478781119 2.23852833581615 -0.388307998978373 0.5505304 -0.4652737 0.6931354 199 200 195
4.35178465995874 2.22811488590641 -0.395215815480575 -0.06880239 0.004606998 0.9976197 206 206 200
4.35041480056217 2.21044447544673 -0.378175456929444 -0.1475036 0.9884371 -0.03513769 204 205 201
4.37622773708946 2.2192143653192 -0.363503754713612 -0.2913842 0.7826951 -0.5499851 205 203 198
4.3423053686208 2.25157747690864 -0.384276478877894 0.510313 -0.8163388 0.2705024 189 191 185
4.39903942803063 2.30291722533795 -0.371871940166209 -0.4521563 -0.8533977 0.2593592 182 180 165
4.36641848949353 2.26962456510618 -0.395775549540247 0.5903887 -0.460386 0.6629373 202 202 197
4.41358804049856 2.27028313150788 -0.381346960504328 -0.8445354 -0.363486 0.3932403 202 200 191
4.34049464317383 2.2503422616144 -0.371928460976302 0.7788591 -0.4738221 0.4109394 180 181 170
4.39360344860272 2.30196935814453 -0.377289952825094 0.08572497 -0.9207296 0.3806681 179 179 168
4.32608011130902 2.2211114125589 -0.37756369197215 0.799992 0.5937713 0.08630423 192 194 190
4.34423847318665 2.24743385025038 -0.389184876535409 0.5786026 -0.4417988 0.6855894 200 201 195
4.35547873441536 2.2329321292992 -0.396332880901008 0.04754827 0.0580198 0.9971825 197 197 190
4.33098916282797 2.21563508838966 -0.378133386845658 0.6928325 0.6942204 0.1950416 189 193 188
4.37017288166017 2.28867688788379 -0.369608122578058 0.7547111 -0.6329665 0.172524 188 190 182
4.38873911652768 2.29507549107031 -0.389604878254724 0.2154543 -0.5536947 0.8043641 187 187 182
4.34929219093175 2.25963886781263 -0.361090310866426 0.6410412 -0.7075387 -0.2974142 166 168 152
4.36177545003274 2.25131624138888 -0.396056286250772 0.09045827 0.3371693 0.9370881 199 200 193
4.32784392046735 2.22909206735586 -0.387120485410506 0.4069866 0.2234434 0.8856834 199 200 192
4.41231954526675 2.28323999977218 -0.374609661787638 -0.8458003 -0.4984201 0.1902608 190 187 174
4.41559104397198 2.23291482972531 -0.384055944647558 -0.5353994 0.6650022 0.5206914 221 220 217
4.35683351292069 2.26600109700296 -0.376721337151981 0.5802724 -0.4731832 0.6628587 187 188 179
4.37159790208012 2.22454081607266 -0.391040094237075 -0.2066352 0.200499 0.9576545 244 205 233
4.36808565629814 2.28790796194694 -0.359607859410732 0.8473222 -0.5308785 0.01460052 176 178 170
4.33487504245005 2.21280020543714 -0.379659083860721 0.6956855 0.6789961 0.2344908 203 206 204
4.39548144007433 2.27689369472954 -0.395239694337869 -0.3179732 0.04521924 0.9470208 215 213 209
4.36494645736972 2.25064320002723 -0.396574382130817 -0.02567181 0.2217136 0.9747738 192 192 185
4.38674157898294 2.22535515214071 -0.360693596942236 -0.1852849 0.7400966 -0.6464723 205 202 198
4.36495588663701 2.28064588566846 -0.383280030604036 0.8445457 -0.5229535 0.1151617 187 188 183
4.35072455142567 2.25684560666961 -0.383334541437524 0.7661978 -0.6228542 0.1580936 188 191 183
4.35040792170447 2.24943977318524 -0.394895573849792 0.5207015 -0.1158528 0.8458416 197 199 195
4.39300456845878 2.23667984798112 -0.389311553003708 0.01318281 0.06889494 0.9975368 205 202 198
4.40978783320907 2.27796664735394 -0.355295954015748 -0.7907773 -0.5419645 -0.2845095 166 161 139
4.41009047930233 2.28095192309392 -0.357732903793313 -0.7634346 -0.5927309 -0.2565883 173 171 146
4.41092277681137 2.27973750509375 -0.357934404575078 -0.7659378 -0.5688252 -0.2996283 167 164 138
4.41282130293025 2.26970402339805 -0.354533968799069 -0.8070006 -0.400277 -0.4341984 153 149 120
4.40680473177945 2.2857448660978 -0.354086661197381 -0.8194062 -0.5689073 0.07012757 174 170 153
4.40540951584763 2.28640643228184 -0.358297734000095 -0.7896934 -0.610281 -0.06278121 169 164 142
4.4074224721693 2.28431968909041 -0.357310906301911 -0.8059564 -0.5758211 -0.1373474 149 148 119
4.40686737263006 2.28384358571788 -0.359404502374673 -0.7467707 -0.6477979 -0.1506362 149 149 119
4.40447035052761 2.29013543384834 -0.357953193458911 -0.8492635 -0.5276034 -0.01964934 173 170 149
4.40245401500489 2.29226305943953 -0.356391287653173 -0.8910488 -0.4516988 -0.04472263 167 163 142
4.4035524604999 2.28720743626895 -0.359678730243542 -0.8088212 -0.5810561 -0.09045518 164 162 138
4.42147884781307 2.24035886266942 -0.381639585013085 -0.9612253 -0.02307809 0.2747967 212 212 208
4.4013111630735 2.29401186593377 -0.361171551479115 -0.8742017 -0.4267922 -0.2315598 165 160 139
4.39933722022715 2.29871727129951 -0.360087235998838 -0.8474054 -0.4584931 -0.2677466 172 166 141
4.3967513478965 2.30414629861177 -0.360632235556184 -0.546044 -0.7921905 -0.2725255 179 172 156
4.39356625162763 2.30692209333047 -0.361009516489623 -0.1416017 -0.987988 -0.06187664 182 183 173
4.38445788673977 2.30422150862862 -0.360448139539961 0.5831709 -0.7445123 0.3249817 176 178 167
4.38313300760935 2.3035844404933 -0.36011877617343 0.5875912 -0.748742 0.3067933 174 175 164
4.38458554747629 2.30354985175254 -0.362298628321951 0.5864639 -0.7371307 0.3357058 176 178 168
4.38259470884584 2.30300560803517 -0.360785982038719 0.5794928 -0.7476959 0.3242514 173 175 163
4.38044630034577 2.30108957161694 -0.36023364946419 0.5594345 -0.7414249 0.3705701 173 174 163
4.38608020016925 2.30501958734992 -0.36243279923222 0.5747352 -0.7508537 0.3254201 175 176 166
4.38640555243037 2.30484279921287 -0.365144262650499 0.535393 -0.7624351 0.3633826 180 183 173
4.38289081251921 2.30237442806153 -0.363928106381916 0.6081605 -0.7201903 0.3338663 179 180 172
4.38181653885665 2.30087396844488 -0.364893661177092 0.5891882 -0.7095968 0.386432 180 181 171
4.40103001995409 2.29276937352745 -0.355621636599569 -0.8910488 -0.4516988 -0.04472263 165 162 142
4.36438770457436 2.25195682105106 -0.397296351752974 -0.04156047 0.2606831 0.9645295 193 193 187
4.37515366525375 2.21711147557074 -0.387678201746597 -0.1211834 0.8569892 0.5008833 205 205 200
4.37311500280099 2.29559255090261 -0.361000919861878 0.7189875 -0.6352516 0.2819793 184 185 176
4.37715284787052 2.29897887317802 -0.361943235989827 0.5680409 -0.7277496 0.3843305 179 179 172
4.37666959974795 2.29823659081247 -0.362965277633279 0.5782108 -0.7214624 0.3810041 178 179 171
4.37811425298831 2.29839112933826 -0.364545884186601 0.5419494 -0.7357885 0.4060863 184 185 177
4.37038429307788 2.2923327204434 -0.361300071112942 0.784389 -0.5659747 0.2537842 182 183 175
4.37421322619481 2.29552329904099 -0.363439402152082 0.6477036 -0.682173 0.3392935 184 185 178
4.37575846348663 2.29609716840583 -0.365117755667804 0.5903568 -0.7131235 0.3780658 183 184 178
4.37413404215602 2.2941458203704 -0.36504771328929 0.6604097 -0.6847693 0.3081397 178 181 171
4.37318517014581 2.2921105209802 -0.365088818604646 0.7118183 -0.662511 0.2332248 176 178 168
4.36731442101747 2.28611374393042 -0.359690006255685 0.8731027 -0.4872908 0.01546929 174 175 166
4.36965329538312 2.29014592716213 -0.361151783571104 0.7928511 -0.5824691 0.1792118 183 185 178
4.36860048936941 2.28872094002998 -0.361543866107751 0.7980989 -0.5912313 0.116119 181 183 176
4.36776917942764 2.2869756093498 -0.361146578786315 0.8688192 -0.4942155 0.03007346 173 176 164
4.36997497630369 2.28994665409286 -0.363154893819106 0.7695988 -0.6195245 0.1546194 177 179 171
4.37002595371656 2.29046556105603 -0.364338230208872 0.7552915 -0.6311596 0.1765566 177 179 172
4.36724121653957 2.28562175749336 -0.360792689252074 0.8682181 -0.4961536 0.005377844 172 176 160
4.3660836191659 2.28365230298876 -0.361375421980416 0.8873485 -0.4604908 0.02368118 170 173 160
4.3664913436156 2.28544768456242 -0.365674195562412 0.883679 -0.4567231 0.1025446 180 181 174
4.42113676149305 2.24485191747582 -0.354214285798764 -0.6578386 0.03211148 -0.752474 202 201 195
4.421043374368 2.24327720659622 -0.352590792784122 -0.6464506 0.1655546 -0.7447774 200 200 193
4.41857366760257 2.25423731927574 -0.355460819219841 -0.6457886 -0.2218486 -0.7305753 175 168 142
4.41344335848265 2.24630419634324 -0.351239915536268 -0.2538145 -0.02681392 -0.9668812 165 156 131
4.41193976632489 2.23530527497414 -0.354080399656447 -0.1591728 0.6018037 -0.7826214 202 200 195
4.4105838191532 2.23571756371666 -0.353837609742642 -0.07201847 0.5752142 -0.8148263 202 201 196
4.40908916050974 2.25507679452988 -0.352720672857679 -0.3684214 -0.2070378 -0.9063118 165 160 133
4.40654896577594 2.24642589109271 -0.350125010755408 -0.1470737 0.187934 -0.9711077 165 159 130
4.40152631785308 2.23792919008695 -0.349767177532211 -0.1856624 0.612693 -0.7682036 201 199 194
4.40054439659094 2.23715546691585 -0.350075849532639 -0.2077168 0.6178703 -0.758347 202 200 196
4.39766112252372 2.23654321478439 -0.349794040121137 -0.1269136 0.7566371 -0.6413994 204 203 198
4.40242359626718 2.23680961837274 -0.352065049131388 -0.1283849 0.7515293 -0.6470866 202 201 196
4.39786226128147 2.23646747113989 -0.351030890765402 -0.1583536 0.728748 -0.666221 204 203 198
4.39718859982821 2.23491403403366 -0.352101598800979 -0.1753159 0.7283245 -0.6624256 202 200 194
4.40070213325502 2.2339509199215 -0.35490680360244 -0.1928417 0.715988 -0.6709495 203 202 197
4.39289448356211 2.23422192333465 -0.352118240124529 -0.01833112 0.7615235 -0.647878 202 200 194
4.39147676432225 2.23364504879053 -0.352185919704571 -0.0318285 0.7698134 -0.637475 201 200 196
4.39373895398396 2.2299840272237 -0.356063556685556 -0.009278475 0.7379696 -0.6747702 202 201 196
4.38886772845856 2.23391117761102 -0.350792357007358 -0.05610267 0.8089339 -0.5852166 204 202 197
4.38773023338324 2.23328188467194 -0.350608463462086 -0.08550344 0.8188544 -0.5675972 206 204 198
4.38047305881414 2.23221498198616 -0.351758931183716 -0.3631577 0.6874829 -0.628875 203 201 197
4.37779747933108 2.23059344087937 -0.351662548896133 -0.4994567 0.6643835 -0.5560014 201 200 194
4.38773904643629 2.23425302664195 -0.354602082004293 -0.04209591 0.7688345 -0.6380606 205 204 199
4.38366974925875 2.23332977541466 -0.353423484958429 -0.2084703 0.7169137 -0.665263 205 204 199
4.38485475857691 2.23397465185097 -0.354467628102412 -0.1537144 0.743513 -0.6508151 205 204 199
4.38250820826677 2.23265272358708 -0.354439383064672 -0.2180636 0.6961298 -0.6839967 205 204 200
4.38023916012566 2.23025150762985 -0.355351396416666 -0.426457 0.6329137 -0.6461846 204 202 198
4.37863131733427 2.22807766244733 -0.355929081906009 -0.5658948 0.6145674 -0.549609 206 204 200
4.38135013015164 2.23145741264049 -0.356421447785754 -0.3382596 0.6421873 -0.6878778 209 206 202
4.37732126420283 2.22659989931858 -0.355262940068218 -0.5481133 0.605141 -0.5773874 208 206 201
4.37523054687796 2.22396655214783 -0.35519993397928 -0.4411467 0.6931728 -0.570001 211 210 206
4.37743361193778 2.22384453165229 -0.358116860215601 -0.4575596 0.6542465 -0.6021633 206 205 201
4.37757858233454 2.22583804656293 -0.356103326578243 -0.5391937 0.60158 -0.5893825 207 206 201
4.37421698898018 2.22342014411501 -0.3548979871954 -0.4194075 0.7556819 -0.503033 208 208 204
4.41395763038663 2.25212516422768 -0.390994057107403 -0.4926386 0.01396972 0.8701218 212 211 207
4.36203172228351 2.2720156329301 -0.35863429511736 0.8087767 -0.4921113 -0.3220355 169 172 160
4.36357397184053 2.28021166442379 -0.360661037949583 0.9083321 -0.4008997 0.1192148 178 179 169
4.3625719975091 2.2767000857089 -0.359492299814471 0.9473249 -0.3168417 0.04676552 182 182 174
4.36447241120549 2.28207190575285 -0.361613731926431 0.9122851 -0.4033009 0.07130302 176 177 168
4.36446190188181 2.28082577421927 -0.362813724086569 0.9206688 -0.3752286 0.1075755 176 178 167
4.36293306220973 2.27807642959625 -0.361623022921029 0.939562 -0.3409735 0.03098925 173 176 166
4.36371694402417 2.2779593630438 -0.365281341525916 0.8904446 -0.4532943 0.04040721 177 179 168
4.3636700962068 2.27667665508336 -0.365514596508918 0.8721319 -0.4890366 0.01513364 175 177 165
4.36259066470896 2.27434777017056 -0.364384783568635 0.914436 -0.3861117 -0.1213448 170 171 159
4.36109740238586 2.2689254357333 -0.358476919757926 0.7084297 -0.5731105 -0.4119122 165 167 152
4.36154134750091 2.27117145471905 -0.35872026494433 0.7894201 -0.5082831 -0.344186 168 171 155
4.35968962090177 2.26704972312413 -0.359747468408227 0.673142 -0.6004896 -0.4316157 156 157 143
4.35672399315897 2.26600712742288 -0.358888930056846 0.62914 -0.638603 -0.4431355 164 167 153
4.35269873908905 2.26306948695757 -0.360914925185867 0.6370481 -0.6631702 -0.3929059 159 162 146
4.35943716821483 2.26885514752961 -0.362247388710303 0.6902092 -0.621538 -0.3705425 161 163 146
4.35400119233428 2.26751213000039 -0.365448923140953 0.6196923 -0.67802 -0.3953103 168 171 157
4.35042411110365 2.26511891933029 -0.366058859630865 0.7510169 -0.5652881 -0.341208 169 172 159
4.35107611566081 2.26174456913917 -0.359485887995908 0.6282066 -0.6908774 -0.3578337 172 173 161
4.34999183779535 2.26035957523888 -0.35908906640067 0.6382912 -0.6999844 -0.3203219 171 171 160
4.34738924923537 2.25869952628826 -0.359250672693475 0.6066085 -0.7482529 -0.2685957 171 173 160
4.34660417504359 2.25764604501742 -0.359750696041638 0.5736156 -0.7810377 -0.2468708 167 170 151
4.34692472933848 2.2575220574026 -0.360986347657752 0.5973334 -0.7570176 -0.2647967 173 176 162
4.34314039462219 2.25636521176942 -0.360430291085318 0.5181822 -0.8328259 -0.1946488 167 170 152
4.34340694137865 2.25596283402046 -0.362194094192045 0.5222254 -0.8363479 -0.1667414 168 172 158
4.34871356349687 2.25897568023966 -0.361641623365299 0.6313294 -0.7222717 -0.2823948 171 174 162
4.34595854592506 2.25829741224728 -0.365276627425402 0.6136134 -0.7496178 -0.2480962 177 178 168
4.34195279683464 2.25552653968339 -0.363638092007583 0.5377894 -0.8383758 -0.08893041 173 175 166
4.3444530363516 2.25865523993904 -0.366967468128922 0.618239 -0.7575929 -0.2093647 182 184 176
4.33676174196775 2.25114004438902 -0.359658177866953 0.6466003 -0.7576234 -0.08896545 180 182 175
4.33766515293466 2.25297525383222 -0.361747453979472 0.5841458 -0.8082293 -0.0744246 176 179 169
4.34031403066777 2.25436160494536 -0.362668279462806 0.5242702 -0.8416721 -0.1293401 175 177 166
4.33754005829801 2.25402265679824 -0.363695570169076 0.5725745 -0.8178062 -0.05789189 174 176 167
4.3383701388556 2.25329664318701 -0.366590527811132 0.5953739 -0.776211 0.2074284 179 180 170
4.37847265190856 2.26495780594863 -0.396236601059881 -0.04713414 -0.1228648 0.9913034 221 219 216
4.37290225403903 2.22413652061529 -0.353766915390858 -0.4104934 0.727348 -0.5499637 206 206 202
4.37085785971192 2.22204837802127 -0.354647427959668 -0.3926913 0.8546655 -0.3396182 208 206 203
4.37209231668668 2.22164681709462 -0.358345632905276 -0.3179884 0.8488861 -0.4222271 203 203 199
4.37075922351426 2.22139392525392 -0.35819259290053 -0.3016032 0.8645343 -0.402015 205 204 199
4.36961652865518 2.21950919862297 -0.356843553741382 -0.3510702 0.8691602 -0.3482962 202 202 198
4.36937605057083 2.22145633519565 -0.357896591212849 -0.3752881 0.8784611 -0.2957449 202 202 197
4.36939486650696 2.2209073685935 -0.359571586358482 -0.3264205 0.8552139 -0.4025654 203 202 197
4.36511532200903 2.21914268707186 -0.355341342952854 -0.3452826 0.8668066 -0.3597587 202 200 197
4.36540931945499 2.21805440017432 -0.355869823764043 -0.332209 0.8410606 -0.4269123 200 198 194
4.36675166014687 2.21858009353114 -0.357119995391682 -0.3551392 0.8556959 -0.3763784 203 202 198
4.36692485059093 2.21938429187876 -0.359816729541442 -0.3331646 0.8331478 -0.4414364 204 203 200
4.36665939149768 2.21848560624093 -0.359541970637652 -0.3552691 0.8276001 -0.4345824 204 202 200
4.35971403709063 2.21746910079369 -0.356270234055267 -0.1247597 0.8550566 -0.5033023 204 203 199
4.35957134331179 2.21621545288606 -0.358539406567527 -0.09254847 0.815708 -0.5710124 203 202 198
4.35801123305362 2.21504668388022 -0.359562781590681 0.029863 0.8230926 -0.5671215 203 202 197
4.35560821122669 2.21886051466983 -0.354309490208046 -0.06863291 0.8794689 -0.4709819 197 197 192
4.35779931748777 2.21855100410873 -0.355089506669139 -0.05347019 0.8420447 -0.536751 202 201 196
4.35528762126369 2.21720691541682 -0.356240674090519 -0.05113201 0.8604272 -0.5070015 197 197 191
4.35411724909864 2.21682927084826 -0.358496039580646 -0.01130022 0.8762223 -0.4817745 204 202 197
4.35333211796273 2.21656581263822 -0.358527522200734 -0.03336914 0.8992528 -0.4361546 205 203 198
4.35521426180154 2.21509736114427 -0.360313369822241 0.07097562 0.8845395 -0.461034 204 202 197
4.35365547729593 2.21605399496527 -0.361160391189615 0.04440619 0.9073035 -0.4181248 205 204 199
4.34938804761974 2.21580461028316 -0.357489334193386 -0.1737083 0.9124433 -0.3705033 204 203 198
4.34836952331658 2.2150945361404 -0.35883613932446 -0.2893501 0.8957559 -0.3374877 207 205 200
4.34599547975862 2.21731014027705 -0.393657155779115 0.06270681 0.5487313 0.8336437 208 210 206
4.3471494220613 2.21425230871543 -0.357967982295536 -0.3018294 0.9002511 -0.3137627 211 208 204
4.34778678135003 2.2144532853578 -0.361487665556902 -0.288852 0.9172326 -0.2743152 207 206 201
4.34727686941475 2.21385689210683 -0.362330936608398 -0.2713957 0.9258549 -0.2629393 208 206 202
4.34211743620471 2.21291690905827 -0.359007996521106 -0.1551696 0.9625545 -0.2222865 201 199 195
4.34241435331909 2.21214875586218 -0.35956782561705 -0.1810932 0.9617847 -0.2053668 212 209 204
4.34447468681884 2.21297956696891 -0.360368306278534 -0.2388056 0.949237 -0.2047461 210 208 203
4.34365922021849 2.21282259481739 -0.361874311526502 -0.2080622 0.9607053 -0.1837262 214 211 206
4.34204663936297 2.21215482244 -0.360904167359706 -0.1541365 0.9746629 -0.1620931 219 215 212
4.34263316441141 2.21282490808727 -0.361583344135313 -0.1641688 0.9738628 -0.1569709 214 211 206
4.34427384938476 2.21246243091043 -0.363700362984371 -0.2152878 0.952995 -0.2131942 213 210 204
4.34141843139075 2.21252750515476 -0.361680439949116 -0.1264778 0.9720082 -0.1979987 209 208 202
4.34094999525912 2.21205416664125 -0.364079550265904 -0.1348898 0.9639338 -0.2294263 208 206 201
4.33943138502691 2.21193193686263 -0.363718537401892 -0.04366118 0.9469723 -0.3183349 207 206 199
4.33765686653154 2.21257752542186 -0.360921631444893 0.01657729 0.9532239 -0.3018102 200 198 192
4.33474369636728 2.21324901774637 -0.36022518950336 0.1512614 0.8887494 -0.4327177 194 193 189
4.33511419937588 2.21282959929272 -0.36137784469513 0.1126655 0.8985192 -0.4242284 201 199 195
4.33701003254839 2.2117589812242 -0.361400018940751 0.04221119 0.926676 -0.3734835 203 200 196
4.33629803727285 2.21171839879443 -0.363926879087024 0.05302684 0.9151543 -0.3996009 205 202 198
4.33275288406406 2.21231253786926 -0.363780174748842 0.3157937 0.869832 -0.3790338 205 203 198
4.33078973294528 2.21187719839344 -0.36439412482347 0.4220767 0.8471294 -0.3228359 194 193 187
4.32805802184628 2.2146139422802 -0.364785881705973 0.7810221 0.6140864 -0.1135883 182 183 175
4.32623620687014 2.22009091879692 -0.362682415314589 0.770386 0.6291187 -0.1035134 195 196 193
4.32520427073359 2.21914703885867 -0.364304493966192 0.7737153 0.6204336 -0.128167 190 191 188
4.32800459911964 2.21587126167326 -0.364714362777726 0.79973 0.563136 -0.20811 182 183 176
4.37624436468983 2.29168072462512 -0.379510070802484 0.3732092 -0.9196262 0.122485 179 180 170
4.31559565615056 2.22610877218418 -0.367801575683093 0.6541978 0.5607706 0.5075052 199 200 198
4.34128553433964 2.25646452005829 -0.370641389346212 0.8448667 -0.519769 0.1266512 175 177 166
4.37727612611289 2.24183328035282 -0.392988411175293 -0.1734266 0.2059017 0.9630824 214 201 208
4.42659214055244 2.25098657063405 -0.364002298860803 -0.9608956 -0.1384302 0.2398266 199 196 187
4.41935964879943 2.26806247472368 -0.37306348416474 -0.9423649 -0.3016053 0.1448539 199 196 187
4.33855527556988 2.23097187680233 -0.395238383103214 0.5330444 -0.002360136 0.846084 205 206 202
4.32292095939566 2.23580316181968 -0.37932282623479 0.9458106 0.01883356 0.3241723 184 189 184
4.36375614498243 2.27761371915732 -0.379762783479694 0.9376551 -0.335331 0.09141117 186 189 182
4.33386867802299 2.24895109781092 -0.360338151192761 0.7190886 -0.6930788 -0.05053086 173 174 163
4.33312838791564 2.24822422674125 -0.360658326187627 0.7022231 -0.7114146 -0.02778374 174 176 164
4.33620069872878 2.25224827045204 -0.367491197104121 0.6487035 -0.6490323 0.3974178 182 182 174
4.33404091605978 2.25115723092122 -0.363060527347467 0.7264673 -0.686836 -0.02239371 170 171 157
4.33360672965799 2.25076092130212 -0.36492606150305 0.7667682 -0.6318015 0.113549 172 174 159
4.33378655164977 2.2487550515556 -0.366525256938226 0.7511235 -0.5769439 0.3208568 184 185 175
4.33457332620825 2.2506184884346 -0.36752659122906 0.6779342 -0.6067938 0.4149778 178 178 166
4.33244100382651 2.24812967831185 -0.365865994300302 0.6745441 -0.7037155 0.2231024 177 177 164
4.33241945232909 2.24708809717399 -0.367338872456983 0.6465078 -0.6988198 0.3060698 184 184 174
4.32513773675437 2.24255877240794 -0.374760192674479 0.5004032 -0.8070846 0.3133865 192 194 187
4.35914560863054 2.2668420729887 -0.377778777491636 0.719786 -0.3980837 0.5687156 186 188 179
4.38807653822262 2.30050218599962 -0.371830594306926 0.5206203 -0.7484842 0.4107626 184 184 174
4.32893534229835 2.24466866853268 -0.360134455035962 0.7551218 -0.6430629 -0.127519 178 181 173
4.32866992433306 2.24488913573389 -0.361065310519838 0.7551218 -0.6430629 -0.127519 156 157 139
4.32761846056892 2.24252680761218 -0.361979464770954 0.7152113 -0.6714318 -0.1940416 176 179 168
4.32526218415023 2.23755549996579 -0.359439166247918 0.7159881 -0.5971851 -0.3615673 175 178 168
4.32652717321226 2.24139286525272 -0.361395982991008 0.7107975 -0.6143176 -0.3426086 170 174 162
4.32439236172786 2.23771420360177 -0.36131207375643 0.7354138 -0.5598043 -0.381819 155 156 136
4.32438022162424 2.2380826542331 -0.361988990546747 0.7417808 -0.5512676 -0.3819232 176 177 169
4.33092700461889 2.24611937726239 -0.363401381998839 0.6869955 -0.725899 0.03328148 176 178 166
4.33089794336174 2.24705333050617 -0.364707254270501 0.7048509 -0.7021363 0.1009452 178 180 169
4.32876427772157 2.24461147868085 -0.363803865919071 0.7218239 -0.691998 0.01044033 167 167 151
4.33118076920637 2.24595268101031 -0.368063183587563 0.6641496 -0.7037554 0.2522573 187 187 180
4.32765448379342 2.24714332799983 -0.367927205829782 0.5290573 -0.848528 0.009923331 170 170 154
4.32358370772099 2.2359463955508 -0.361767598667712 0.7475826 -0.5501118 -0.3721524 158 157 140
4.32162475086682 2.23245109623168 -0.359910670936614 0.7326823 -0.3059655 -0.6079159 156 156 132
4.32008635364105 2.23749408655247 -0.369641680411655 0.9017362 -0.4265698 0.07007182 183 185 176
4.31990745473592 2.23682032574594 -0.368372311634351 0.8992273 -0.4314384 0.07246549 182 185 174
4.31920827780684 2.23544076710708 -0.368438552525073 0.8534069 -0.4659374 0.2336644 185 187 178
4.31596344138571 2.23246980304175 -0.368344929681776 0.8270772 -0.1853265 0.5306575 186 188 182
4.31481836891692 2.22935785873185 -0.366851378759628 0.8397188 0.1625989 0.5181062 197 197 195
4.31997565183242 2.22205203547965 -0.366418013083815 0.4698772 0.8073074 0.3570296 196 197 194
4.31792649305741 2.22347754800653 -0.363441871523517 0.6174357 0.7693681 0.1638467 188 188 186
4.31788019368337 2.22309305778713 -0.364383751944369 0.5799119 0.7894048 0.2013507 186 186 183
4.31666191695377 2.22769660883639 -0.363927884894036 0.9074481 0.4085943 0.09792136 194 195 190
4.31635635563779 2.22506913189324 -0.365174626602831 0.778653 0.5890922 0.2160323 192 193 190
4.31689672300383 2.22386826595111 -0.365606727667697 0.6787994 0.7096602 0.1887162 192 194 190
4.31539778055611 2.22671119114045 -0.366677406123238 0.8947344 0.4028503 0.1927742 187 189 184
4.31623375808331 2.22491226768468 -0.366956953959765 0.6560525 0.6434585 0.3944061 198 199 197
4.32423049253037 2.22861709864825 -0.38675682823176 0.7712804 0.3621848 0.5234011 198 199 195
4.42088932719629 2.26063498235193 -0.358719487411732 -0.7886984 -0.2354861 -0.5678919 177 174 154
4.41852593969844 2.26827317782709 -0.359904472289263 -0.8368796 -0.4521208 -0.3085762 185 181 166
4.41991202224857 2.26626142065033 -0.360598840359588 -0.8328616 -0.4417083 -0.3335197 184 181 164
4.41803853544 2.2668758653005 -0.357062408177218 -0.8197219 -0.3620646 -0.4438077 170 163 144
4.41870090313303 2.26698056717562 -0.357468011691855 -0.8269231 -0.3795757 -0.4148742 183 180 166
4.42239029762228 2.26201921223478 -0.361260664683835 -0.8633023 -0.4012824 -0.3060744 190 187 174
4.41961931436359 2.26764613986923 -0.362447837089491 -0.8306341 -0.5495597 -0.08961627 183 180 164
4.41898054306134 2.26830508659671 -0.363459493002562 -0.8552781 -0.5126961 -0.07511345 188 186 172
4.42153893470712 2.26417831721264 -0.36263810047923 -0.8510289 -0.5189895 -0.07999776 174 170 149
4.41982292662116 2.26567818347013 -0.366642120892374 -0.8414125 -0.5306954 0.1019184 171 169 145
4.41960573820101 2.26724003979316 -0.372987732284216 -0.9321257 -0.3213024 0.1670522 200 198 188
4.42060485903632 2.2644607795816 -0.3689259757383 -0.8852619 -0.4426096 0.1428572 194 192 184
4.42008465077642 2.26542121541789 -0.368215955202983 -0.8822346 -0.4621464 0.08990394 186 184 173
4.42024193553572 2.26426978835179 -0.370310337358692 -0.9119449 -0.3842632 0.1438693 203 201 193
4.42060842545823 2.26357714570387 -0.3725383241507 -0.9293984 -0.3214141 0.1814154 199 197 186
4.42004289461192 2.26595341163298 -0.37291112356053 -0.9174153 -0.35327 0.1831656 197 195 184
4.41988040628242 2.26586710060432 -0.374516892252461 -0.9029675 -0.3250424 0.2810645 203 202 192
4.42169414732388 2.2603853424179 -0.374751764839311 -0.9197642 -0.2829578 0.2719717 203 202 194
4.42083808866911 2.26253741076308 -0.374282617393062 -0.9096704 -0.3264015 0.2568303 205 203 195
4.41969683575676 2.26152787947519 -0.37769393432429 -0.8421433 -0.2868805 0.4566116 205 203 195
4.40520370560472 2.295179544058 -0.36996406613634 -0.8599885 -0.5032289 -0.08473797 187 185 170
4.40691567227829 2.29182551968834 -0.369993819086286 -0.8880845 -0.4512826 -0.0874646 172 169 148
4.41437505038299 2.27541887219237 -0.359427713665918 -0.8277339 -0.4421673 -0.3454629 167 163 141
4.41313567615619 2.27708559116151 -0.359070652964655 -0.8135353 -0.506321 -0.2860059 170 167 140
4.41212952167512 2.28058705493566 -0.361905921003169 -0.7722177 -0.5709527 -0.2787345 174 172 152
4.41177711521592 2.28232008172083 -0.364173025854703 -0.7476836 -0.5964791 -0.2918594 172 168 151
4.41539873198019 2.27606066653819 -0.364327457610532 -0.87863 -0.4363585 -0.1939087 180 177 160
4.41658973803837 2.27526271419706 -0.36647336885574 -0.9286512 -0.3557245 -0.1051999 180 177 159
4.41492150807338 2.27743670785645 -0.365088129259074 -0.8704484 -0.4526047 -0.1935681 177 176 158
4.41365523752153 2.28100411212207 -0.369066045357339 -0.8389723 -0.5337912 -0.1057935 187 185 170
4.41699831289677 2.27061970487595 -0.358878589049952 -0.8470739 -0.4110266 -0.3369317 177 174 158
4.41579084298542 2.27410368041087 -0.360376589689047 -0.8629928 -0.4207997 -0.2795908 177 174 154
4.41648710501846 2.27223636267144 -0.362176413279696 -0.8754542 -0.461543 -0.1433807 180 177 161
4.41754347971369 2.27041298123485 -0.361278202845852 -0.8786654 -0.4523855 -0.1526247 181 178 163
4.41565612610574 2.26851407875037 -0.358565473399931 -0.846699 -0.3921926 -0.3595633 171 166 145
4.41672242314831 2.27183223578204 -0.363420661663443 -0.8992507 -0.4233866 -0.1099633 179 177 162
4.4169256380955 2.27321777027933 -0.368541378940366 -0.9428441 -0.3212724 -0.08848182 183 180 165
4.40938641146483 2.28241165559397 -0.360134173532932 -0.748362 -0.6106957 -0.2588533 174 171 151
4.40790977926746 2.28325718960647 -0.361367337027505 -0.7176947 -0.6326022 -0.2910821 150 149 122
4.40549397375782 2.28508335817964 -0.3606146916628 -0.7808992 -0.6117496 -0.1263279 163 160 132
4.40692245608092 2.28705968723687 -0.365536605194903 -0.7326711 -0.5811745 -0.3541598 169 165 143
4.41030769452643 2.28447888211087 -0.366506825548203 -0.7605342 -0.594239 -0.2616633 167 163 141
4.40832522768229 2.28755541285834 -0.367883601927114 -0.8230534 -0.5111158 -0.2476766 171 169 144
4.41067959620895 2.28368440971474 -0.368351489041804 -0.7770583 -0.6073614 -0.1652047 171 167 147
4.40662177582566 2.28868154160691 -0.366445360247014 -0.7583024 -0.5187594 -0.3947989 171 169 142
4.417164953109 2.27344856372924 -0.370258505606008 -0.9537283 -0.2941124 -0.06245116 188 186 170
4.41649161685699 2.27688685918907 -0.369614399456335 -0.9128162 -0.4024822 -0.06909978 177 174 157
4.41387630664352 2.281372333447 -0.372623603309943 -0.8390917 -0.5333748 0.1069414 186 183 165
4.41395086898981 2.28087787654974 -0.375571755603192 -0.8834295 -0.322752 0.3396814 196 193 182
4.41585570720182 2.27664785639761 -0.372793260580868 -0.899851 -0.4032348 0.1663425 184 181 166
4.41273204398163 2.27797233250764 -0.37807736711077 -0.8118898 -0.311497 0.4937658 198 194 186
4.41263076963308 2.27910612236267 -0.378176032235945 -0.8192481 -0.2769875 0.502106 196 193 183
4.41286805604889 2.27643469806434 -0.378996843771547 -0.7700462 -0.2981182 0.5640518 196 193 183
4.41802132150302 2.27195470868953 -0.374075970769715 -0.9329349 -0.3075935 0.1871329 196 194 182
4.41810242852558 2.27070953305059 -0.374873795907464 -0.8937736 -0.2920229 0.3404283 199 196 185
4.4183177079967 2.26879692716856 -0.375218874700893 -0.9047135 -0.2623616 0.3356484 204 203 194
4.41689361461223 2.27349444055882 -0.376325245213093 -0.8278987 -0.3681507 0.4231415 202 199 191
4.4164267478294 2.27199405352257 -0.376934917284833 -0.8000442 -0.3058291 0.5161373 201 198 188
4.41617264732699 2.26772684711858 -0.378147026953497 -0.8100772 -0.2770465 0.5167399 204 202 194
4.4159405321678 2.26743022650499 -0.379659467193432 -0.8135334 -0.3404345 0.4714527 204 202 195
4.41534666526679 2.27261570519658 -0.377899725206391 -0.7592101 -0.2754759 0.589672 205 203 198
4.41412392100593 2.27111970316843 -0.379543104882037 -0.757382 -0.3011605 0.5793746 199 198 190
4.41182340233893 2.27484204527647 -0.381354330128037 -0.8731337 -0.3452637 0.3441374 195 192 180
4.41164275546279 2.28370003628933 -0.376929907071219 -0.8235013 -0.4221925 0.3789448 201 198 189
4.40854749195379 2.28868765027439 -0.373112816975958 -0.8784891 -0.4770596 0.02590492 175 172 153
4.40671999053239 2.29014038018069 -0.376286561359818 -0.7939408 -0.5390211 0.2812727 189 185 171
4.41235203319264 2.28034207692303 -0.378328554699683 -0.8179893 -0.2781564 0.5035102 194 191 178
4.41027353228391 2.27767822595384 -0.381816980465965 -0.8469449 -0.3560849 0.3948264 204 202 193
4.40987641146146 2.28209659586975 -0.38035971693856 -0.8036265 -0.2911854 0.5190331 208 205 196
4.40985449091947 2.28002272352963 -0.380453303695142 -0.8138611 -0.3082845 0.4925351 203 201 190
4.40881382982565 2.28332469477912 -0.381062888323263 -0.7935699 -0.3423976 0.5030016 205 203 195
4.40471927678827 2.28879329237452 -0.38395147519432 -0.6906345 -0.4654704 0.5534992 207 204 197
4.41807816407829 2.26136645160089 -0.381281486199214 -0.8049382 -0.1053768 0.5839266 212 209 204
4.41692621973694 2.26306952767385 -0.382350221490319 -0.8205795 -0.1859677 0.5404307 215 213 209
4.41630806497708 2.2663384702587 -0.380358134268181 -0.8265382 -0.3465482 0.4435526 210 208 203
4.41490922114123 2.26299222574568 -0.384433283215468 -0.849004 -0.1497799 0.506713 214 213 208
4.41311858960521 2.27083521453368 -0.382070030455724 -0.8610014 -0.3581924 0.3610743 203 200 193
4.35878875806633 2.21242736370336 -0.376617581289835 -0.1149062 0.9844339 0.13299 223 222 219
4.41286880657333 2.27183916915458 -0.383235880975406 -0.892789 -0.3084703 0.3282894 202 200 192
4.41329481743151 2.26574300279071 -0.386728454660383 -0.8023276 -0.1465001 0.5786261 212 209 205
4.41070666265102 2.26806014198546 -0.38778950806958 -0.6316646 -0.1838087 0.7531362 214 212 205
4.41113761613836 2.26469952108125 -0.389027408660237 -0.6862987 -0.1884484 0.7024822 214 212 208
4.41000903739496 2.26529936758027 -0.389792656845654 -0.6151203 -0.2409975 0.7506978 214 212 207
4.40994283936716 2.26402349477936 -0.390405905443826 -0.6121103 -0.2285164 0.7570345 214 212 207
4.41065366164635 2.27580652660007 -0.385354149697015 -0.8236822 -0.4107496 0.3909378 208 207 201
4.40989391708939 2.27729980326756 -0.385328362713429 -0.8040343 -0.4104294 0.4302053 209 207 202
4.40763677441648 2.28389521570673 -0.383482045168627 -0.7388864 -0.3492588 0.576251 200 197 187
4.40456031831133 2.28607713835402 -0.384846695559635 -0.647613 -0.3049733 0.6982755 213 208 201
4.40950016560205 2.27196668910547 -0.388941841288408 -0.5805905 -0.2756056 0.7661307 215 213 205
4.40910419773206 2.2732552917229 -0.389179207722927 -0.5255389 -0.2953783 0.7978474 217 215 209
4.40765678630772 2.27036991832395 -0.389808534861787 -0.5142045 -0.2427651 0.8225927 214 212 204
4.40867515094265 2.26877268081127 -0.389577299420728 -0.5435492 -0.2309211 0.8069879 214 212 205
4.40741825442952 2.26564345520802 -0.392705115997546 -0.492502 -0.2102091 0.8445436 218 216 212
4.40622678510221 2.26590881268117 -0.392922853163336 -0.4641761 -0.2161489 0.8589646 217 215 210
4.40473356575949 2.2677298563409 -0.39270546769824 -0.3804294 -0.2613559 0.8871114 209 207 200
4.40643112772778 2.27438301416833 -0.389264723621997 -0.5067109 -0.302332 0.8073658 216 214 207
4.40469791384017 2.27346760135047 -0.390348684174707 -0.4902133 -0.2356623 0.8391389 214 213 207
4.40421491734051 2.2750315213738 -0.390870627330509 -0.4780517 -0.3166976 0.8192492 212 211 205
4.40271516568851 2.27395753286584 -0.39147576846497 -0.4768046 -0.2061963 0.8544826 216 213 207
4.34128100659417 2.22749914438197 -0.396157421149624 0.2331924 -0.0244879 0.9721223 216 215 213
4.40270640768017 2.27025057054133 -0.392962619204082 -0.3111767 -0.1615357 0.936523 214 212 206
4.40145406339201 2.27193988523548 -0.393270979695839 -0.3475454 -0.0880323 0.9335216 219 216 211
4.39979730304537 2.27117516725868 -0.393293788707744 -0.2566087 0.03647598 0.9658268 218 215 209
4.40221390671028 2.29301747982132 -0.363982556793368 -0.8554697 -0.4077393 -0.3192497 171 165 144
4.40165237989143 2.2946715503714 -0.36327975250378 -0.8601643 -0.411472 -0.3013438 168 163 142
4.40213397730596 2.29676691628367 -0.365113102187317 -0.8293443 -0.4533933 -0.326531 163 158 134
4.40297905040806 2.29461769988481 -0.366093437570882 -0.8344796 -0.3971802 -0.3819576 169 163 139
4.39629363743804 2.30580772688197 -0.364108293272541 -0.3750478 -0.9267652 -0.0211047 185 185 174
4.39949414334217 2.30274223884406 -0.366344262280123 -0.7154697 -0.6896691 -0.1116227 178 174 152
4.40251886657222 2.29961246910185 -0.370403057026243 -0.7954571 -0.6038384 -0.05125497 179 177 161
4.40404984474545 2.29864844708619 -0.371269587391329 -0.8143623 -0.5802917 -0.0086884 179 175 155
4.40363160450985 2.29864963273604 -0.373343071260319 -0.7636881 -0.5995439 0.2394321 190 187 170
4.40184603883375 2.30048752517263 -0.373265510629359 -0.7006381 -0.6798369 0.2166289 187 186 178
4.4021285458038 2.29976324421578 -0.373421661243046 -0.7196496 -0.6531059 0.2357054 190 188 178
4.40494814653456 2.29696790292143 -0.370889752001602 -0.8391429 -0.5434963 -0.02123777 187 184 170
4.400705003075 2.30189198757245 -0.371878617258415 -0.6392631 -0.7456217 0.1881251 187 185 171
4.39879999755955 2.30378703720335 -0.370845646342763 -0.4724863 -0.8417697 0.261114 178 176 164
4.39897878812516 2.30100741169843 -0.374324826563265 -0.4685671 -0.7816381 0.4116876 183 180 170
4.39538158519134 2.30635877423889 -0.366786917290855 -0.2044366 -0.9423639 0.2648697 184 183 172
4.39105078797671 2.30702177516321 -0.366621249849069 0.1789896 -0.9101213 0.3736869 189 189 182
4.39085005058284 2.30667886951838 -0.366300217001662 0.3149491 -0.8757079 0.3659818 188 189 182
4.39332096796398 2.30597140431055 -0.369024717281268 -0.01363992 -0.9105338 0.4132095 187 187 176
4.38792700858523 2.30529161544134 -0.366054090960316 0.5035293 -0.760711 0.4096061 183 184 175
4.39141313710211 2.30255529379222 -0.373391206512718 0.3920794 -0.8333027 0.3897182 182 183 172
4.38946986951531 2.3020429556641 -0.371562520613644 0.517027 -0.7329711 0.442082 183 183 172
4.38770715971776 2.29869017599514 -0.375425642372156 0.5715817 -0.7969598 0.1953185 177 178 165
4.40446793351714 2.2950403141424 -0.375631002149432 -0.8072487 -0.4545687 0.376453 192 190 177
4.40380977513397 2.29519586817186 -0.375341813970156 -0.7949918 -0.4620837 0.3930226 192 190 177
4.40369174553569 2.29414198707317 -0.376578198313506 -0.7807659 -0.4960409 0.3799318 191 189 177
4.40309740131784 2.29696562857343 -0.375860259876535 -0.7365048 -0.5205085 0.4320088 190 188 178
4.40479267198118 2.2929619036101 -0.375995236433799 -0.826145 -0.4586257 0.3273332 192 189 177
4.40466673411032 2.29193396107012 -0.376429952012471 -0.8015593 -0.5137463 0.305888 184 183 173
4.4044542760034 2.2919139280624 -0.378103506326185 -0.7869618 -0.5154653 0.3390968 182 182 172
4.40121930945123 2.30043493079152 -0.375139139504061 -0.6197678 -0.6512893 0.437847 188 186 179
4.39854463302439 2.30003026639237 -0.37761061692174 -0.4448955 -0.7743474 0.4499489 189 187 177
4.39707366529821 2.3009071271605 -0.376930957029557 -0.286007 -0.8378961 0.464898 188 186 176
4.40395162689838 2.29200654863837 -0.38202347117988 -0.7154028 -0.5561504 0.4229604 194 191 184
4.40113267832727 2.29352994746823 -0.384269147099284 -0.6532217 -0.5594737 0.5101868 204 201 195
4.39711869264764 2.295353714134 -0.38599190735216 -0.5862949 -0.5788891 0.5666972 211 209 201
4.39264290773918 2.30140240590828 -0.377661376736338 0.1433183 -0.9370313 0.3184843 182 183 173
4.40293691150127 2.22433465958928 -0.374040829345821 -0.2514546 0.950065 -0.1847893 215 214 213
4.39033101664349 2.30031866470772 -0.377332074175407 0.3858807 -0.9049687 0.1792424 183 184 175
4.39572692847565 2.30068601593585 -0.37905542879935 -0.1721165 -0.9010406 0.3981227 183 183 171
4.39431244001485 2.30094256733814 -0.379809662411357 -0.1419851 -0.9067055 0.3971466 183 183 171
4.39158085902875 2.30070063271401 -0.379631532939374 0.1152972 -0.9588993 0.2592656 183 183 171
4.38782565635233 2.29944747170279 -0.382230095292324 0.5858997 -0.8037999 0.1030886 180 181 171
4.38819867267875 2.29944343854636 -0.382876527346217 0.5866589 -0.8029503 0.1053669 180 181 173
4.38686349813552 2.29823251726599 -0.383882394122162 0.7032991 -0.6988418 0.1303479 183 183 173
4.38988517405718 2.29909911987856 -0.387085365613339 0.1239677 -0.8577183 0.4989503 183 185 178
4.38688220416436 2.29772491031017 -0.385413331884875 0.6372505 -0.7080475 0.3042704 185 186 179
4.3823697628475 2.29887079826698 -0.367637632693689 0.5867131 -0.6986154 0.4095171 177 179 167
4.38039477436288 2.29701998682647 -0.368067054546959 0.5453137 -0.7466336 0.3810136 178 179 169
4.38292392223925 2.29923749970996 -0.369431726954226 0.5671828 -0.6868247 0.4545059 179 180 170
4.38336811271315 2.2987323981713 -0.370450046736992 0.5523068 -0.7024163 0.4489639 184 184 177
4.38074560644974 2.29698829470746 -0.370127739771851 0.5256569 -0.7343007 0.4295197 178 179 168
4.38566585951777 2.29887472013348 -0.37159985109853 0.5227084 -0.7394228 0.4242993 185 186 179
4.38661275033204 2.29811513463953 -0.372694496168921 0.5510695 -0.7353051 0.3945234 187 187 179
4.38246413247058 2.29647481704715 -0.373607901021381 0.5689384 -0.709076 0.4165577 182 180 167
4.38341314120493 2.29594297944273 -0.374382898492924 0.5713203 -0.753534 0.3252377 181 180 169
4.38263749247604 2.29428783086759 -0.375391473444465 0.5606835 -0.7744629 0.2929866 180 180 168
4.3799730366161 2.29241004500317 -0.374880263727932 0.4263817 -0.8709133 0.2443535 175 177 165
4.38190784122356 2.29389388754796 -0.376449766110478 0.5022316 -0.8270416 0.2525185 171 170 153
4.38068811135479 2.29290410439959 -0.376000035162459 0.4419621 -0.8614129 0.2502744 171 170 154
4.3862288118633 2.29754859896256 -0.376803394532368 0.6200219 -0.7762351 0.1141571 177 179 167
4.3850782352389 2.29692433769292 -0.377564407200063 0.6371206 -0.763122 0.1082694 180 180 170
4.38591534642909 2.29690534949135 -0.381688702769883 0.7119701 -0.6955972 0.09614122 182 182 172
4.38495683420633 2.29590222601542 -0.380582677251123 0.7310216 -0.6718218 0.119427 181 182 171
4.38410120930758 2.29526040458037 -0.37978993376051 0.7187647 -0.6818222 0.1359994 181 182 171
4.38292362995762 2.29392396105399 -0.380484433622585 0.6006029 -0.7849589 0.152038 184 185 176
4.38161190788998 2.2938918066737 -0.377181042092206 0.5039616 -0.8246639 0.2568114 178 179 167
4.38212803963896 2.29264663016158 -0.381989769564341 0.5754295 -0.7801303 0.245515 183 182 171
4.38376220086261 2.2931386706964 -0.386050855901957 0.7330917 -0.6185831 0.2827216 185 187 180
4.38451223886051 2.29493990517624 -0.385665028158603 0.7637304 -0.5931813 0.2546601 189 189 183
4.38593396889116 2.29590720027947 -0.387903912192823 0.611189 -0.6441292 0.4599408 188 190 185
4.38404423447582 2.29326847121642 -0.384935594954787 0.7492806 -0.610304 0.2571138 178 182 172
4.3829989478518 2.29156117295912 -0.386415448140051 0.6693454 -0.650322 0.3592464 191 192 184
4.38233534216539 2.29017862594858 -0.387319201274097 0.6895282 -0.6309423 0.355616 192 193 187
4.37419356816666 2.29291461844916 -0.369201643986087 0.5556907 -0.7890295 0.2619928 180 182 173
4.37893320734701 2.2954078307623 -0.368870902054903 0.5365531 -0.7574047 0.3720873 178 180 169
4.37446694874371 2.29248343471825 -0.371485819057022 0.5088379 -0.8282046 0.2348641 185 185 177
4.37489780133103 2.29187122415757 -0.374365009764174 0.4564563 -0.8658404 0.204861 179 180 173
4.3710492418273 2.28984808471332 -0.369109729851235 0.7313888 -0.6685268 0.1346936 187 188 181
4.37053461246796 2.28890437147188 -0.369983019558034 0.7550221 -0.629858 0.1822646 188 190 182
4.36716367629353 2.2871762512469 -0.367115172330389 0.8289489 -0.5271245 0.1870385 183 184 178
