ply
format ascii 1.0
comment File exported by Rhinoceros Version 7.0
element vertex 494
property float x
property float y
property float z
property float nx
property float ny
property float nz
property uchar red
property uchar green
property uchar blue
end_header
3.36044656073328 1.93051325500413 -0.361165100401472 0.0482899 -0.1045115 -0.9933506 198 196 187
3.35995911944392 1.92653715059901 -0.360796337934994 0.1472232 0.1799857 -0.9725896 192 190 182
3.3586781971918 1.92862643914909 -0.361661244423724 0.1354243 0.09464956 -0.9862564 191 190 182
3.35820117865821 1.92611493521104 -0.361230273967367 0.2529132 0.273889 -0.9279115 190 189 182
3.42882745941178 1.86012423659605 -0.3093430106949 0.5960277 -0.7740078 -0.2136888 192 193 186
3.35731414205812 1.92959876457657 -0.361453626988493 0.2046753 0.03006088 -0.9783682 197 194 186
3.35688966584094 1.92905329060636 -0.362191151973625 0.2450331 0.141002 -0.9592066 194 192 183
3.35905388360351 1.92292111750895 -0.361936564536825 0.3316101 0.4440716 -0.8323672 192 191 183
3.35527749680204 1.92370769848467 -0.363906150556103 0.2121141 0.451348 -0.8667713 199 196 187
3.35493094630286 1.92301562565387 -0.364499442472196 0.2317807 0.4662268 -0.8537624 206 202 193
3.35447496093437 1.9309928282813 -0.361847765132041 0.1212711 -0.003344773 -0.9926138 198 196 187
3.35441222175706 1.92808503847698 -0.361779959302409 0.2022601 0.2068719 -0.957233 195 193 184
3.35375074080833 1.92979884069769 -0.36238898293788 0.1912356 0.170511 -0.9666204 196 194 185
3.35121266336163 1.93186560724951 -0.361826438770417 0.09914034 0.06827559 -0.9927284 199 196 188
3.35309185091888 1.93066854919005 -0.362055527739284 0.1659155 0.1918844 -0.9672913 197 195 186
3.35044378351682 1.93006795406996 -0.362377339610927 0.1655071 0.2218641 -0.9609286 196 194 185
3.35272934697657 1.92806899870457 -0.36267189248878 0.1937938 0.2219422 -0.9556075 195 193 184
3.35424369197879 1.92736019165899 -0.362202874985623 0.2087377 0.2276821 -0.951099 192 190 181
3.35172898599785 1.92666747111775 -0.362787806832875 0.189482 0.2673624 -0.9447824 192 189 179
3.35325310157307 1.92387049209395 -0.363935392263755 0.1980062 0.4372702 -0.8772618 195 193 184
3.33082233633607 1.79330890591996 -0.287755996039156 0.5195553 -0.6700276 0.5302126 189 190 182
3.34993769129822 1.92594730622448 -0.363281673389915 0.202486 0.2726308 -0.9405699 189 188 178
3.34914046738314 1.92507655806136 -0.363735560059649 0.1632732 0.3443653 -0.9245293 190 189 179
3.3592368948896 1.9212028690247 -0.36416916939375 0.3386997 0.4334795 -0.8350916 192 191 182
3.35882928808317 1.91995149044086 -0.36503255118475 0.3180394 0.4049922 -0.8572236 203 200 191
3.35895148890024 1.91891664810831 -0.365685498847936 0.2748924 0.2621159 -0.9250564 212 208 201
3.40074610254407 1.85222034698426 -0.323159426272703 0.5390861 -0.7870178 -0.2999818 199 199 189
3.35713498902783 1.91957855656254 -0.365566859361199 0.2478398 0.3072994 -0.9187723 205 202 193
3.35404856449662 1.91851557727674 -0.36608913721793 0.1274143 0.1169994 -0.9849247 209 204 197
3.35812499623709 1.91679584126847 -0.365553970025937 0.1557534 0.03345498 -0.9872293 215 212 202
3.35746196426564 1.91516487632052 -0.365495680242574 0.1170669 -0.1815341 -0.9763917 213 208 198
3.35631816556181 1.91375918399655 -0.365423867215875 0.1027208 -0.219074 -0.970286 208 205 196
3.35432903593734 1.91302276361728 -0.364826999310152 0.05906818 -0.2651539 -0.9623951 209 205 194
3.35232621379269 1.91468217090342 -0.365949803778169 -0.02398986 -0.2453517 -0.9691373 209 205 195
3.31742607834376 1.79386509340246 -0.281185531205614 -0.1937002 -0.8612905 0.4697434 184 183 174
3.35337322730481 1.9107291824796 -0.364497350436548 0.05251004 -0.2319778 -0.9713027 210 207 196
3.35505636005407 1.9112225144915 -0.364888697109158 0.06547304 -0.2349591 -0.9697977 211 206 198
3.35479342238238 1.90977210861049 -0.364210861494625 0.05444158 -0.1786721 -0.9824013 209 205 194
3.34810812215242 1.92125182177182 -0.365979167022105 0.01970889 0.2142213 -0.9765863 208 204 198
3.35191605260457 1.91725984021218 -0.366400094561309 0.01474488 -0.1116091 -0.9936428 212 206 201
3.34743321885708 1.91567030973841 -0.365387508671909 -0.194391 -0.218929 -0.9561811 198 195 188
3.34819994144297 1.9158074422824 -0.365783293631876 -0.1828843 -0.2232821 -0.9574437 196 194 186
3.35570290828438 1.96336751538526 -0.337996372772171 0.2961846 0.7886658 -0.5387772 197 195 193
3.35417538828998 1.96116848953722 -0.338626150787613 0.3320967 0.7739271 -0.539211 192 190 181
3.35041724524598 1.96469892349534 -0.336436469975138 0.2534099 0.9360355 -0.2441743 197 200 199
3.34970460237628 1.96509547110534 -0.336974563543023 0.2448569 0.9345973 -0.2580176 194 196 195
3.34651450241963 1.9655990144149 -0.336851958691769 -0.1428197 0.9756086 -0.1667045 189 188 184
3.34744330273644 1.9662779043128 -0.338554090756207 0.101082 0.9362619 -0.3364463 186 185 182
3.34525162922137 1.96541047121334 -0.336381564661158 -0.2306435 0.9683588 -0.09531508 183 183 177
3.3454750202908 1.96525040261115 -0.338348626017475 -0.1870325 0.9282976 -0.3213758 191 190 187
3.34552673496539 1.96340785839331 -0.340740704208042 -0.1274843 0.7276919 -0.6739526 199 199 194
3.35508077412178 1.96023966201802 -0.340249854028077 0.2521387 0.6954521 -0.6728837 189 188 180
3.35277550765383 1.96054769662119 -0.341375605597469 0.3083858 0.6108571 -0.7292131 190 187 181
3.35438756245024 1.95701077847097 -0.343630773731961 0.1529574 0.7690589 -0.6206065 187 187 179
3.35249087945939 1.95722294060116 -0.344260624963998 0.2164517 0.7209761 -0.6582873 188 188 181
3.3469211097756 1.96253762815454 -0.341442352799389 0.00284508 0.6486229 -0.7611046 195 194 189
3.34763890835775 1.96097756635975 -0.342182363905604 0.06021529 0.6006907 -0.7972106 194 193 187
3.34806291111383 1.95888686317157 -0.343789631162372 0.137726 0.6822119 -0.7180658 191 192 184
3.34872112803652 1.95895445998485 -0.344248463411372 0.1631785 0.6842933 -0.7107148 191 192 185
3.34594843737124 1.95847326043751 -0.344805886340873 0.05267954 0.7404652 -0.670027 188 188 180
3.34344802152764 1.96492947370133 -0.337038398312754 -0.4044051 0.8978162 -0.1743059 186 184 183
3.34505749175907 1.96497473924086 -0.340239534968448 -0.1866757 0.8353968 -0.5169762 192 190 187
3.34428929519775 1.96378807863187 -0.341350175707493 -0.2150928 0.7337381 -0.6444871 193 193 188
3.34079313118292 1.96213497513386 -0.335957855871065 -0.6985733 0.7139926 -0.04700977 190 191 187
3.37182623642192 1.90252704151453 -0.363807619062369 0.1543014 0.2143991 -0.9644812 201 199 193
3.34070552273473 1.96257562201081 -0.337810930186813 -0.6496736 0.7338449 -0.1984839 187 188 184
3.34181578575846 1.96148100592581 -0.340933669412309 -0.4891659 0.7071052 -0.5106065 183 183 176
3.34013344122509 1.95974876427022 -0.343212970952063 -0.553424 0.655119 -0.5143356 190 191 184
3.34312243744108 1.95932292903674 -0.343810270528673 -0.1586633 0.6867066 -0.7094082 186 187 179
3.34349772210735 1.95773161534257 -0.345486704112847 -0.05253885 0.7775224 -0.6266566 188 187 179
3.34134238425356 1.95822779192522 -0.345032084146488 -0.4450457 0.6975507 -0.5615669 184 185 175
3.34063129933676 1.95900110193094 -0.343833885212344 -0.4710129 0.7076809 -0.5266256 191 190 183
3.27681941959009 1.86174847182609 -0.352645149444454 -0.7361014 -0.6119227 -0.2893185 200 200 192
3.33760994471712 1.95892075847062 -0.335787431746121 -0.6284354 0.7662589 -0.1338517 179 179 170
3.33609076610421 1.95815407439134 -0.335166950724835 -0.5398262 0.814458 -0.2127108 189 188 182
3.33754331370398 1.95821595582461 -0.337766146993621 -0.6641722 0.6668605 -0.3378941 179 180 171
3.33690978767069 1.9574958479452 -0.3393606327876 -0.6996703 0.6270394 -0.3424662 186 185 178
3.33651609216853 1.95737158622639 -0.339206696456353 -0.6647944 0.6366614 -0.3907821 184 183 175
3.33313542361371 1.95604713043392 -0.335893439700417 -0.6010737 0.6788458 -0.4217567 178 178 166
3.33335365394757 1.95611456454484 -0.337011956628806 -0.6137329 0.6550309 -0.4407566 180 180 169
3.33134520971938 1.9534480003495 -0.335526313055797 -0.5390013 0.7041995 -0.4621479 179 179 170
3.32894821311951 1.95110092704784 -0.336928666538783 -0.4232865 0.8397372 -0.3401028 175 175 163
3.33214244873485 1.95236226823815 -0.336743116095041 -0.5203675 0.7632367 -0.3829979 169 171 156
3.332925135432 1.95281166523322 -0.338935822381659 -0.5318469 0.7914767 -0.3011701 170 170 154
3.33218323306564 1.95229322108487 -0.339061570818648 -0.4879733 0.8304985 -0.2686156 169 168 154
3.32904068515596 1.95054168818908 -0.338504770297163 -0.4051269 0.8965455 -0.1791044 169 168 153
3.33021183180115 1.95135477378922 -0.338694314705444 -0.4549034 0.8627337 -0.2208021 177 177 166
3.33792808822327 1.95821529021108 -0.340735995806537 -0.7406294 0.5682315 -0.358582 186 186 178
3.33695944843751 1.95587889600731 -0.340137961191497 -0.6798415 0.6269085 -0.3805276 187 186 177
3.33739438711707 1.95553809216442 -0.341139226509741 -0.7003192 0.6033234 -0.3815153 183 183 171
3.33885074440898 1.95630483352648 -0.343336555221972 -0.6655687 0.6062008 -0.4353607 200 200 194
3.33839028285263 1.95706133064328 -0.342089131395644 -0.7034427 0.577614 -0.4141623 192 192 181
3.33660422785452 1.955190461128 -0.340311592950909 -0.6462908 0.6536738 -0.3937242 189 188 179
3.33850311889905 1.9548330211272 -0.342826395190783 -0.6864683 0.6133684 -0.3905643 183 185 171
3.33964531180514 1.95592289741413 -0.344831375713379 -0.6134214 0.6448947 -0.4558783 196 197 191
3.338400156248 1.95459549000625 -0.344827806697257 -0.6693714 0.6732969 -0.3140274 173 174 158
3.33591512108051 1.95351686535739 -0.343414708776194 -0.5499642 0.7674024 -0.329595 181 180 169
3.33595613158403 1.95278405948406 -0.345115374480993 -0.5395514 0.7857782 -0.3023852 181 181 171
3.33495239086289 1.95367713611224 -0.340353615533678 -0.5938503 0.7240427 -0.350862 186 186 178
3.33455110107428 1.95388895994343 -0.339944463209401 -0.6007034 0.7177161 -0.3521918 178 178 167
3.3316725401446 1.95266927288855 -0.342131978457159 -0.4066608 0.874338 -0.2648773 177 175 162
3.33135652023661 1.95254108533621 -0.341335455235271 -0.4155764 0.8818973 -0.2226063 176 173 161
3.33335802440489 1.9515821141012 -0.34493762208908 -0.3459617 0.8890994 -0.2996878 183 182 170
3.33258840756382 1.9510820008978 -0.344949958124813 -0.2659551 0.9245815 -0.2727949 182 181 169
3.33012509650888 1.95135959821243 -0.343437970245353 -0.2522824 0.9457768 -0.204597 181 180 170
3.33093800786376 1.95069627518676 -0.345147615937961 -0.1735364 0.9676538 -0.1831153 179 178 170
3.32821902655512 1.94965418938352 -0.344454329957871 -0.1275894 0.9909862 0.04083126 172 172 163
3.35308896605768 1.95582035774917 -0.344262571433575 0.1729348 0.7503613 -0.6380059 186 186 178
3.35164888447339 1.95612881871122 -0.346296258173705 0.2067538 0.7498663 -0.6284531 179 179 170
3.35193763870292 1.95432326369036 -0.348749652864851 0.1485811 0.8127913 -0.5632885 182 183 173
3.3510147059392 1.9542268256161 -0.348313104509182 0.2195726 0.7840213 -0.5806019 183 184 176
3.35162853974011 1.9532126340764 -0.349126176454179 0.16559 0.7897192 -0.5906975 178 178 169
3.34797915569232 1.95656304109731 -0.347474258022583 0.1213708 0.7787151 -0.6155258 192 192 187
3.34407217029542 1.95588492926812 -0.347216145989414 -0.0357384 0.7707906 -0.6360854 182 182 173
3.3496473330984 1.95434120380103 -0.34831546319475 0.1752284 0.7814932 -0.5988016 180 180 170
3.34965468869672 1.9539861313156 -0.349385294661371 0.1457825 0.7621302 -0.6307971 179 179 169
3.34093470470777 1.78731175643717 -0.31675249388216 0.3374737 -0.8414657 0.4219562 200 200 195
3.347231452195 1.95458736587052 -0.350209525418177 0.1099594 0.7818037 -0.6137523 190 189 183
3.35156739958948 1.95206865780589 -0.350401837018373 0.11025 0.7310612 -0.6733457 178 179 168
3.34758924180282 1.9540867282348 -0.350448053302955 0.1049302 0.7831438 -0.6129237 191 189 184
3.34630161425039 1.95360850351933 -0.351350826966687 0.1280764 0.8036978 -0.5810907 186 185 180
3.34865278450406 1.95182741869631 -0.352707000816146 0.2055842 0.7414851 -0.6386979 186 185 177
3.34719561651551 1.95092003978749 -0.353203038832292 0.2185872 0.747304 -0.6275001 182 183 174
3.34801444971625 1.94928248320664 -0.355283847249126 0.1779965 0.7699395 -0.612789 185 185 180
3.34591412285932 1.95102358088516 -0.353731287445042 0.2185885 0.7603867 -0.6115808 180 181 175
3.34603074238412 1.95019166151592 -0.355160890910944 0.2227205 0.7610359 -0.6092782 179 180 175
3.34291553464562 1.95776912554864 -0.346548283522516 -0.1317124 0.7440023 -0.6550668 188 187 178
3.34178646640213 1.9567375825034 -0.347978729310569 -0.21227 0.8098866 -0.5468318 186 187 181
3.34114207915004 1.95679267840876 -0.348724452589486 -0.2871867 0.7749406 -0.5630194 185 184 179
3.33841474258973 1.95414022534268 -0.346365005456896 -0.5913138 0.718644 -0.3659217 179 180 169
3.33740006120675 1.95334920829453 -0.345460928891141 -0.6209096 0.734719 -0.2732382 183 180 171
3.33631192568083 1.95286295977589 -0.346400927947228 -0.5245949 0.7942162 -0.3066281 181 181 171
3.34321135808171 1.95337778116631 -0.350141668028396 0.04321399 0.8138744 -0.5794316 176 178 169
3.33765633142168 1.95398118717292 -0.34884362864047 -0.5434133 0.778376 -0.3143768 179 180 172
3.3337511714582 1.95046132673473 -0.346186311080772 -0.2994088 0.9282291 -0.220783 175 176 163
3.33299277091011 1.9501019753544 -0.347764711142062 -0.2042649 0.9556374 -0.21221 178 179 174
3.33128267837338 1.95038714092108 -0.346800723450561 -0.1633889 0.9707741 -0.1757886 177 177 170
3.33157551997219 1.95027274850387 -0.350131566173646 -0.01586406 0.9677945 -0.2512412 181 181 174
3.34387772579914 1.95310979445363 -0.352425427708166 0.1167323 0.8226432 -0.5564455 175 178 170
3.34069807616466 1.95389398304444 -0.35267013299648 -0.1185256 0.8319772 -0.5420015 189 190 184
3.33831590737653 1.95211225967826 -0.353297980130602 -0.427556 0.7550925 -0.4970223 189 189 185
3.34365230870424 1.95216613717614 -0.354292184080921 0.1261798 0.8042434 -0.5807506 183 186 180
3.33642149778577 1.95004004793049 -0.353818507668088 -0.325611 0.800292 -0.503498 180 180 170
3.33588320275799 1.94955824213135 -0.35280671014069 -0.3503085 0.8271841 -0.4393751 174 175 166
3.33032149269684 1.94977898740916 -0.351775758112278 0.08239896 0.9035755 -0.4204305 180 181 173
3.33008902152662 1.94922107205577 -0.353455986441873 0.07624115 0.843539 -0.5316288 175 175 165
3.33608937448166 1.94772119134676 -0.354557859733405 -0.2205297 0.8226559 -0.5240268 179 180 172
3.3352584595387 1.94739976772745 -0.354843448512373 -0.1793782 0.8228542 -0.5391979 183 182 176
3.33380412942558 1.94764090396793 -0.355578997111784 -0.114465 0.8591491 -0.498759 180 180 175
3.33170920332994 1.94850340383574 -0.355916312074476 -0.01696543 0.8557426 -0.5171235 186 186 183
3.32662242448063 1.95025095263388 -0.340996495573788 -0.3701335 0.928094 -0.04053158 167 168 154
3.32776205099402 1.95070822182701 -0.342693511616442 -0.3126276 0.9472171 -0.07101937 169 169 156
3.32524236244792 1.95020418707382 -0.34568694902515 -0.09777953 0.9755289 0.1969329 174 174 165
3.3292458828092 1.95113352054183 -0.347598240931514 -0.03675243 0.9883966 -0.1473819 177 176 168
3.32476316926065 1.95145759921716 -0.348346590051935 -0.01162967 0.9985237 0.05305952 171 171 162
3.3244704939477 1.95142380858416 -0.347948998147884 -0.04197179 0.9954987 0.08497538 169 170 159
3.32958501639703 1.95133715309507 -0.349608288814565 0.07683217 0.9855438 -0.150997 172 172 164
3.32858677073715 1.95164199574113 -0.349317653399816 0.04576079 0.9901938 -0.1319934 165 165 158
3.32948833097993 1.9509969929246 -0.350061757005833 0.09208917 0.9794402 -0.1794896 175 175 168
3.32011734251107 1.95060582535306 -0.351521237752698 -0.2695392 0.8928739 -0.3607283 190 190 187
3.32546558789921 1.95114078185726 -0.352556799578931 0.05266994 0.8855164 -0.4616131 181 182 180
3.32428212556531 1.95143206458645 -0.352330477254055 -0.009520847 0.8933654 -0.4492299 179 179 176
3.32645264309725 1.9499295672368 -0.354184734911221 0.09392023 0.8208072 -0.5634311 190 189 187
3.39389690865694 1.83822541780463 -0.292892616342846 0.2801341 -0.9581801 -0.05844484 194 194 184
3.33002756490785 1.94890340670051 -0.353997676586313 0.03825501 0.8328065 -0.5522407 183 182 178
3.32791375090016 1.9478757330097 -0.354464883038487 0.09443992 0.782523 -0.6154177 185 184 178
3.32773835967753 1.94675202482606 -0.35585312800409 0.02996264 0.7874215 -0.6156862 180 180 174
3.32548604533542 1.94812965854952 -0.355172364316566 0.04433217 0.7605639 -0.6477478 199 200 197
3.32346829765221 1.94975543203717 -0.353705690277407 -0.05227453 0.8347992 -0.5480673 194 194 189
3.32420241223512 1.95025962759613 -0.354912116480235 -0.01522262 0.7934885 -0.6083949 196 195 191
3.3251176051131 1.95116592052855 -0.334635226190462 -0.5848707 0.712254 -0.3880987 176 176 165
3.32415350542035 1.94905675018226 -0.336115904210364 -0.5733562 0.7963321 -0.1926597 170 170 158
3.32356824134922 1.94929224416893 -0.334625745751209 -0.5943865 0.7522328 -0.2843422 171 171 159
3.32256507424804 1.94766245277068 -0.335013006744314 -0.5562432 0.8027006 -0.2150937 170 171 158
3.32543670704631 1.9499609064085 -0.337466294305402 -0.4809436 0.859224 -0.1744344 170 170 157
3.3247110876062 1.94944766429809 -0.33911443333876 -0.4141126 0.909013 -0.04696863 167 169 152
3.3227184364084 1.94765643090582 -0.337148973473594 -0.5398875 0.8371473 -0.08778309 167 167 155
3.31925053065998 1.94581616423765 -0.33585475795669 -0.1996099 0.9791825 -0.0368443 171 173 161
3.31641863012661 1.94506200557966 -0.33487348915288 0.03346062 0.9931798 -0.1116882 173 174 163
3.3169614496072 1.94572373625583 -0.336654225792639 -0.0002724 0.9999717 0.007517094 170 172 158
3.31658373912895 1.94592260312477 -0.337831755884262 0.02609568 0.9939094 0.1070658 172 174 162
3.32006048881138 1.94673515215274 -0.338739760678832 -0.3325652 0.9207228 0.2041321 164 167 154
3.32363386660353 1.94925419164759 -0.340964007154115 -0.3215874 0.9404373 0.1102688 171 172 159
3.3245240029179 1.94876697754002 -0.342738150072267 -0.2887544 0.9438639 0.1604427 167 169 156
3.31972613272188 1.94804998458836 -0.341517278982661 -0.2100818 0.918824 0.3341081 165 167 155
3.31812630270746 1.94727686612826 -0.341692998089757 -0.1280655 0.9278592 0.3502522 169 170 158
3.31800269942537 1.94764248449414 -0.342982266268228 -0.146872 0.9329668 0.3286358 171 172 161
3.32072258406921 1.9491506050309 -0.343729517115709 -0.2293612 0.9241866 0.3054056 173 175 164
3.31949867194969 1.94904219430746 -0.344425309426783 -0.1787215 0.9269961 0.3297528 176 178 170
3.31693708611487 1.94825341222392 -0.344449545476633 -0.09792859 0.9484084 0.3015487 170 172 162
3.31856528098387 1.94878275761271 -0.345255680370135 -0.1598444 0.94932 0.2706315 170 172 163
3.31246460668427 1.94710343263053 -0.335478013436683 0.2071847 0.9769713 -0.05100651 174 175 165
3.31072263225343 1.94766171099364 -0.33593050364675 0.03087629 0.9992633 -0.02279416 172 173 163
3.30847320666741 1.94791408817747 -0.336565510163937 -0.1969325 0.9797434 -0.03633867 182 182 176
3.31291353192991 1.94696808509571 -0.339675143053974 0.1306238 0.9752034 0.1786496 167 168 153
3.3116217709574 1.94678300155717 -0.338506238508629 0.04728851 0.9912009 0.1236306 177 177 169
3.31028653244256 1.94735049195243 -0.339429974039418 -0.1585423 0.9806015 0.1152608 173 174 165
3.30929009368043 1.94713015506687 -0.339669561659461 -0.1692938 0.9809254 0.09552509 172 173 162
3.30586107595879 1.94684261534861 -0.338145921709857 -0.4574408 0.8882649 0.04163397 180 179 174
3.3150295036048 1.94883631239996 -0.346427428497938 -0.1917955 0.9704359 0.1465223 178 178 171
3.31548232998257 1.94914020802728 -0.346578662449586 -0.1719424 0.9679945 0.182818 177 178 168
3.31287364297758 1.94895553112869 -0.344600889615793 -0.1156444 0.9881415 0.1010089 178 177 170
3.31145127765151 1.94898335817458 -0.346060974925854 -0.2659675 0.9631841 -0.0392148 181 180 173
3.31420038473483 1.94717618034777 -0.340335761123208 0.1021648 0.9652863 0.2403845 166 167 153
3.3114735405653 1.94729284003556 -0.341010624450688 -0.002795636 0.9879699 0.1546212 169 169 157
3.31052686863619 1.94859464497596 -0.344346916090664 -0.2583069 0.9654376 0.03475394 173 172 161
3.30598813996412 1.94644928975849 -0.341308926526054 -0.5317349 0.8469093 -0.001579789 175 175 166
3.3062509914936 1.94671757132866 -0.344540906874078 -0.4881099 0.8666817 -0.1030119 184 185 175
3.30762659101106 1.9462648808165 -0.346479787431353 -0.4195594 0.8707625 -0.2564031 183 182 173
3.33966286341585 1.81920767649202 -0.349700255481349 0.628051 -0.3458043 -0.6971164 201 202 196
3.30474443282776 1.94588487753898 -0.344946653641005 -0.5863754 0.8029063 -0.1072634 184 184 177
3.30482531153772 1.94590927694915 -0.336244929434048 -0.6423038 0.7663319 0.01346212 174 175 167
3.30313637844823 1.94388226535039 -0.335099100573097 -0.8003125 0.5948213 0.07541559 175 175 169
3.3034291368211 1.94307531573773 -0.334649141395785 -0.8076908 0.5839571 0.08142269 178 177 171
3.3031140045318 1.94357839760631 -0.336842847761123 -0.820754 0.5711787 -0.01085347 180 179 175
3.30480074891485 1.94628457481821 -0.339243564439054 -0.6147789 0.7867652 0.05520257 174 175 167
3.30441091302261 1.94488531434175 -0.339688114301031 -0.724458 0.6887519 0.02795381 177 178 170
3.30333357202157 1.9432723480582 -0.339392100345034 -0.8092487 0.5867465 0.02907219 179 180 174
3.35606911156647 1.81779531863107 -0.348292526362881 0.7919182 -0.6098561 0.03067823 196 197 190
3.3004998396432 1.93937803169438 -0.33398449388036 -0.8598596 0.500982 0.09827773 174 175 170
3.29942037062637 1.93760875091215 -0.334325391274837 -0.8667346 0.4947408 0.06326634 174 175 171
3.30028293928115 1.9385706833793 -0.335888960259545 -0.8598067 0.5080925 0.05073945 175 176 173
3.29960700703122 1.93883362427984 -0.336369290752835 -0.8610548 0.5063587 0.04674999 176 177 173
3.30136064506083 1.93978732325263 -0.338675286285096 -0.8352957 0.5495232 0.01747416 177 178 172
3.29929789620515 1.93704447913861 -0.336337891376252 -0.8923711 0.4478291 0.0558817 176 178 174
3.30241347020872 1.94171399455618 -0.340283623648579 -0.8319408 0.5459455 0.09908625 179 180 173
3.30310740780863 1.94484170606495 -0.344651779454127 -0.6840189 0.7276899 -0.05084767 184 184 177
3.3042525151403 1.94384895411347 -0.345675304478486 -0.6356955 0.7683944 -0.07390068 178 179 169
3.30248088723163 1.9433949332217 -0.346546953632632 -0.6855883 0.7276643 -0.02175892 177 177 169
3.30084619877325 1.93991106925808 -0.341194285072584 -0.8282847 0.5502412 0.1057302 176 176 168
3.30009974948697 1.93825429955048 -0.3402714906474 -0.8328575 0.5437459 0.1033863 176 176 171
3.29926007254231 1.93776673474919 -0.341799474661814 -0.8561814 0.507368 0.09762724 178 178 173
3.32045397733108 1.95078577354482 -0.34818339101568 -0.1910032 0.976186 0.1028524 181 183 174
3.32458874746094 1.94739168244486 -0.354944525771753 -0.0002217592 0.7417626 -0.6706625 199 200 197
3.3188852245575 1.94983609658336 -0.352826920394907 -0.284697 0.7913458 -0.5410355 182 182 176
3.34180254346341 1.82146341832023 -0.337911588958936 0.3825204 -0.8825069 -0.273605 198 199 191
3.32234593902902 1.94812929177105 -0.355927233611525 -0.1574981 0.7406574 -0.6531624 198 198 196
3.32326413167752 1.94673522549587 -0.356980179903965 -0.0715218 0.7638215 -0.6414526 189 189 184
3.31985436849689 1.9459260354818 -0.356151346380271 -0.2864364 0.6801478 -0.6747986 186 185 178
3.34345087085821 1.79318317728336 -0.334311737598986 0.5960459 -0.7264346 -0.3420849 204 204 198
3.31595231921838 1.94921871878347 -0.351302585804848 -0.373351 0.8552157 -0.3594652 185 185 179
3.40200528047816 1.89201112812117 -0.360362573967415 0.1774772 -0.102479 -0.9787747 198 196 189
3.31513017613152 1.94905526962152 -0.350694870097466 -0.3557814 0.8840842 -0.3030095 174 176 165
3.31091185968363 1.94736699323321 -0.34845248797917 -0.392583 0.8708479 -0.2958082 178 177 167
3.30840418098185 1.94618998373763 -0.348172975736902 -0.3905717 0.866693 -0.3103175 174 175 163
3.3083667477032 1.94504388325235 -0.350569811470607 -0.3401039 0.8677748 -0.3623481 178 179 170
3.30498007119991 1.94427506717593 -0.350788350049085 -0.3352135 0.908465 -0.249646 182 181 174
3.30492507450416 1.94413862032146 -0.35188048686397 -0.3339811 0.8991008 -0.2829741 183 182 174
3.31693970331733 1.94626685411409 -0.355365203061137 -0.2922413 0.6294905 -0.719956 181 182 173
3.31390785595009 1.94570557917298 -0.355383101247581 -0.2841947 0.6546466 -0.7004792 189 189 183
3.31121462856408 1.94492074328619 -0.353486981192144 -0.3366907 0.7446626 -0.5762959 186 186 180
3.3162217899092 1.94458768536168 -0.355955529972115 -0.2855929 0.5870564 -0.757497 189 188 182
3.31478618536971 1.94288221740841 -0.356714709583132 -0.2665525 0.5136002 -0.8155762 184 184 175
3.31087835078943 1.94324541258333 -0.354971545197889 -0.2926543 0.596185 -0.7476075 188 188 179
3.30995593287348 1.9420785513859 -0.355637015472966 -0.2763831 0.5792413 -0.7668715 183 182 171
3.30830116835577 1.94475597538791 -0.35410350396238 -0.3291055 0.747507 -0.5769947 185 184 173
3.30612112949419 1.94347766486162 -0.354120683362301 -0.1977996 0.7225366 -0.662432 195 193 188
3.30455686678589 1.94398662812744 -0.352114035927722 -0.3153706 0.8853457 -0.3416204 187 186 179
3.30718126361124 1.94216692355572 -0.355465980471583 -0.2559486 0.6173657 -0.743875 197 195 189
3.30489594621505 1.9440770243436 -0.347368315102928 -0.5391108 0.8308094 -0.1382582 173 175 161
3.30349606180182 1.94184603601914 -0.353678869311009 -0.1690734 0.7533364 -0.6355301 188 187 179
3.30325352089 1.94308881201408 -0.352407645729984 -0.2932229 0.8524493 -0.4328401 185 185 176
3.30652352945021 1.93909762962084 -0.35617053369103 -0.1428047 0.580992 -0.8012834 191 189 182
3.30501064737097 1.94085593779665 -0.355133119128057 -0.1791415 0.6275144 -0.7577164 185 184 177
3.35352841920757 1.94887542888592 -0.354424517045411 -0.04100048 0.8233416 -0.5660632 176 177 168
3.35579430409162 1.94704648305404 -0.36095436459791 -0.3502063 0.8692135 -0.3490321 175 175 168
3.3509031253191 1.9484658576969 -0.354423070440785 0.09864185 0.8026753 -0.5882024 185 184 180
3.34953033288209 1.94854358046813 -0.356477261274715 0.1009442 0.8355381 -0.5400798 171 174 161
3.35365006763316 1.94751132207679 -0.35746743878082 -0.1079119 0.912178 -0.3953307 166 168 159
3.35000831135794 1.94663167884305 -0.358597592237599 -0.015837 0.8949046 -0.4459766 182 183 177
3.34974838526412 1.94610718541792 -0.359275287034779 -0.02961801 0.884556 -0.4654927 173 175 166
3.34548396515068 1.94924656446252 -0.35689242866681 0.1698877 0.7402443 -0.6505202 185 185 179
3.34755116375259 1.94745496347587 -0.358785885579599 0.05129518 0.8201415 -0.5698567 183 183 177
3.34565987474786 1.94745319630144 -0.358581345252793 0.02475004 0.760105 -0.6493288 169 173 165
3.34331941478719 1.94705470646412 -0.358709557221881 -0.08596594 0.6795573 -0.7285683 178 179 172
3.40462655863309 1.86389691965502 -0.347870441975871 0.5865993 -0.6123039 -0.5300804 200 200 192
3.34444184994856 1.94596742571269 -0.360689707699873 -0.1219316 0.6637498 -0.7379492 185 185 182
3.35105624412206 1.9461006671757 -0.360387998333102 -0.06683952 0.8945337 -0.441975 164 167 159
3.35032581491524 1.9457790983081 -0.361674037206496 -0.1306999 0.8264722 -0.5475959 166 168 163
3.35475058084513 1.94586434630997 -0.363363065171807 -0.2114351 0.70522 -0.6767274 180 181 177
3.35517907464424 1.94431735888794 -0.365248968834817 -0.1383748 0.5207092 -0.8424454 196 195 191
3.35137561793898 1.944824937183 -0.363972076995132 -0.2084869 0.6824323 -0.7005849 182 184 180
3.34569630446389 1.94525154856812 -0.362169634533614 -0.2008649 0.6471822 -0.7353967 191 191 187
3.34778743344927 1.94489432334124 -0.362881928065596 -0.2108701 0.6355052 -0.7427428 185 185 180
3.34732701758295 1.94329475596456 -0.364191451714137 -0.2759573 0.468967 -0.8389979 191 192 187
3.34938562072034 1.94374735743557 -0.364645131823253 -0.2589788 0.4691559 -0.8442883 191 191 188
3.34303753890166 1.94421911305011 -0.361925106034046 -0.1905922 0.4584192 -0.868059 190 189 183
3.34387559520788 1.94278664735516 -0.362336057618622 -0.2483782 0.2648678 -0.9317474 197 196 189
3.34778328779731 1.94212877882886 -0.36441735493025 -0.3472787 0.2291115 -0.9093434 191 192 186
3.3457229376362 1.79541466022713 -0.311526053248494 0.7923586 -0.4410807 0.4214448 209 209 205
3.34162522510853 1.93957799242965 -0.362200425094652 -0.08277605 0.08628608 -0.9928257 199 196 190
3.34125922004858 1.94954739622892 -0.357151547324825 -0.1980868 0.6801727 -0.7057809 197 198 195
3.32356347798025 1.90057013930332 -0.365007586641302 0.02102774 -0.02844404 -0.9993742 205 203 197
3.33944670254701 1.9497192871152 -0.356424940646988 -0.341006 0.6741735 -0.6551374 185 186 181
3.33653745310204 1.94618925376033 -0.356695674997805 -0.14327 0.7869146 -0.6001992 182 184 170
3.33859674248804 1.94606392178666 -0.359453077457884 -0.1500927 0.6966019 -0.7015825 198 198 192
3.3336689058049 1.94647183780697 -0.357921200094149 -0.05450604 0.8423507 -0.5361663 187 188 184
3.33025472968421 1.94574955585935 -0.35813736963738 -0.1126936 0.7956206 -0.5952209 189 189 185
3.33535168349488 1.94558940638229 -0.359613837464237 -0.0555045 0.7092811 -0.7027372 190 192 189
3.33380442106624 1.94615895465305 -0.359750406439404 0.003207192 0.7248569 -0.6888919 189 190 187
3.33557750095541 1.94446372071975 -0.36083822464771 -0.03822861 0.5098506 -0.8594131 206 205 204
3.33172994314967 1.9455425538072 -0.360017341295599 -0.09573229 0.7512078 -0.6530867 198 197 195
3.33838633635723 1.94335525655837 -0.360861255051862 -0.07896165 0.4271276 -0.900737 199 201 198
3.33900362489604 1.94188789519152 -0.362641829061115 -0.08956961 0.1682223 -0.9816713 173 177 169
3.33395250194126 1.94365483748461 -0.361069155566929 -0.05294034 0.4777047 -0.8769239 197 196 192
3.33226011151724 1.94364625508221 -0.361456712852206 0.0008231507 0.4849072 -0.8745652 198 197 194
3.35609868724016 1.94579094936772 -0.365108149234197 -0.3034026 0.5658537 -0.7666528 189 189 185
3.35341904551908 1.94270860585493 -0.365323252818143 -0.1631482 0.187101 -0.9686981 199 198 195
3.35233028714449 1.9392807330199 -0.365007383091237 -0.1910585 -0.2748972 -0.9422994 196 194 189
3.35061293445225 1.94029030406661 -0.364975935212176 -0.2366596 0.003927636 -0.9715847 183 183 176
3.34870735383351 1.94113023103943 -0.364730628245581 -0.3480252 0.1599009 -0.9237479 190 189 186
3.34658460026876 1.93409367721554 -0.362112443040268 0.1630341 0.2050232 -0.9650831 199 197 188
3.34433325110882 1.9363173081868 -0.362275956869381 -0.03307638 0.1049137 -0.9939312 195 193 183
3.34363705097408 1.93509495022179 -0.362993311168056 0.06386927 0.2499054 -0.9661614 203 199 190
3.34236091940816 1.93690614735826 -0.362474674773836 0.04637121 0.1210707 -0.9915602 194 192 182
3.34295719492493 1.93509069837631 -0.363562314786125 0.05477653 0.2420643 -0.9687127 200 196 184
3.3393477073001 1.93644166562965 -0.361596427452097 -0.04186453 0.2069651 -0.9774522 188 187 177
3.33750884905143 1.93440659516509 -0.361863406987993 -0.07626757 0.2941448 -0.952713 185 183 173
3.33647589581731 1.93391503155908 -0.362170867771937 -0.08648862 0.2695602 -0.9590917 187 186 177
3.33794807831303 1.93252245643895 -0.36319953579409 -0.1031848 0.2941558 -0.9501712 189 188 180
3.33477937799414 1.94066020097535 -0.361327260545107 -0.04340505 0.1545435 -0.9870321 197 195 187
3.33464367503603 1.93892718048543 -0.361554218041995 0.003982892 0.1206947 -0.9926817 197 195 187
3.3323488435355 1.94247891012853 -0.360998270896749 0.04129342 0.3695486 -0.9282935 193 192 187
3.33087329447901 1.93898563266291 -0.361770410795566 0.1351144 0.09660728 -0.9861091 195 194 187
3.33005572282826 1.93781524271483 -0.361954249636936 0.1333168 0.05394228 -0.9896044 194 193 184
3.33348314324382 1.93576067032544 -0.361445651193497 0.01710242 0.183708 -0.9828321 190 188 180
3.33129066939511 1.93593554681108 -0.361575766869656 0.03133063 0.1337065 -0.9905256 191 190 180
3.30210776361929 1.83692552108889 -0.362412847482485 -0.06956147 -0.1463414 -0.9867854 204 202 196
3.32954588954694 1.93651673270518 -0.36242556829868 0.1020847 0.04626079 -0.9936994 191 189 180
3.30879068638927 1.80244542695204 -0.31971469863251 -0.4634434 -0.6959732 -0.5484902 198 197 187
3.32819870664147 1.9349272401893 -0.361981416453835 0.05769053 0.08831839 -0.9944202 195 192 185
3.33191370390862 1.93290504891544 -0.362409443376067 -0.00626624 0.2502508 -0.9681607 187 185 176
3.33251677760917 1.93391666161762 -0.362954917993743 0.00464967 0.2206012 -0.975353 180 177 166
3.32799452742951 1.9325159957285 -0.36267984227157 -0.04112662 0.1817588 -0.9824827 193 190 183
3.329076228024 1.93018000903513 -0.363134475609132 -0.04849019 0.2803517 -0.9586717 194 192 186
3.3265410713757 1.93176791418864 -0.362705222978038 -0.08007284 0.1966451 -0.9771996 193 191 183
3.32938409917934 1.92896843494856 -0.364020528081301 -0.05178585 0.2511018 -0.9665744 190 188 180
3.32803996389157 1.9293273500182 -0.364136441524396 -0.06226724 0.2621194 -0.9630245 194 191 185
3.32719240767637 1.93090290094312 -0.363556287970516 -0.06260861 0.2159273 -0.9744001 196 194 187
3.32551882189858 1.93057186629827 -0.363108361257077 -0.09580135 0.1927018 -0.9765695 196 194 187
3.34845578353971 1.93079489861068 -0.362648289576231 0.1932937 0.2475174 -0.9494064 196 193 184
3.34886549902853 1.92848700212478 -0.363766120810062 0.1975292 0.2226643 -0.9546742 198 195 186
3.34940412389409 1.92745801381916 -0.363584125187411 0.203046 0.2464814 -0.9476388 195 193 184
3.34819002571009 1.92948690773664 -0.363924387458377 0.198871 0.2313127 -0.9523365 196 193 185
3.34592608434435 1.92865136172814 -0.36397921211585 0.1577564 0.2253015 -0.9614323 199 196 187
3.34742062159988 1.92590887194899 -0.363724408323566 0.1707434 0.2624109 -0.9497301 190 189 180
3.27837979163894 1.8878421388419 -0.355970448453849 -0.767504 0.575652 -0.282068 172 173 160
3.3456465467593 1.92696644736449 -0.364322230806091 0.1537108 0.2297204 -0.9610419 193 191 182
3.3450326613746 1.93335428419674 -0.362901281539205 0.1646613 0.2701198 -0.9486422 196 194 184
3.34132589215566 1.93225181121436 -0.364772223559142 0.03538708 0.2831075 -0.9584352 201 197 189
3.34105666311599 1.92986569894933 -0.364009349262112 0.0211181 0.2308537 -0.9727592 195 192 185
3.33842112232333 1.92959323233231 -0.364703938590486 -0.05903343 0.2399436 -0.9689903 193 191 183
3.33904201721662 1.92884886516834 -0.364468217731186 -0.05479876 0.2343512 -0.9706063 197 195 188
3.34073569159709 1.92649951673632 -0.364965792041028 0.05326104 0.1614206 -0.9854474 191 189 181
3.34196431639379 1.92566658228283 -0.365587727741971 0.1031928 0.1891226 -0.9765162 192 190 183
3.34305504781368 1.92245313141814 -0.365894003973461 -0.1297334 -0.07509669 -0.988701 197 195 182
3.34202185008608 1.9217511674277 -0.365204722102746 -0.2147691 -0.1621681 -0.9631073 193 190 183
3.34128632762738 1.91551110985391 -0.363519606993943 -0.1521402 0.08140049 -0.9850012 191 188 182
3.34044663899469 1.91320971210961 -0.364017726280369 -0.01796157 0.1835401 -0.9828481 200 198 191
3.34100480187982 1.92384074300609 -0.36568011224006 -0.1697177 -0.1015263 -0.9802491 189 187 177
3.33905827808589 1.9254252014547 -0.365432007838062 -0.1007489 -0.023439 -0.9946358 196 194 186
3.33780766080753 1.92606420364384 -0.365179291078941 -0.1367841 -0.0003663374 -0.9906008 196 194 185
3.33862493306873 1.92624520328899 -0.365511418407237 -0.1199692 0.04359917 -0.9918198 196 194 186
3.33855733531212 1.91899733367947 -0.362526511323195 -0.139439 -0.1064546 -0.9844918 188 187 179
3.33407695106437 1.91878159028656 -0.362723239915054 0.1633332 -0.02955606 -0.9861282 193 191 181
3.33662784281253 1.91590749062993 -0.363113871153718 -0.01356377 0.1387393 -0.990236 196 194 186
3.33560575144392 1.91543186352941 -0.363369934802819 0.01028739 0.1118004 -0.9936774 202 198 191
3.33622057681483 1.91813027008631 -0.362596391702012 0.06525895 0.05467445 -0.9963694 191 189 182
3.34456029345295 1.91879945203627 -0.365106239397526 -0.2694786 -0.1726907 -0.947396 186 185 175
3.34216147613017 1.91485532214625 -0.363935720869181 -0.1719438 0.1058471 -0.9794038 197 195 188
3.34285563810039 1.91469355153664 -0.364044207411482 -0.1719438 0.1058471 -0.9794038 196 192 186
3.28575220821605 1.81560074886511 -0.31335255418461 -0.5426807 -0.8284246 -0.138601 189 188 180
3.33657932015517 1.93046357038013 -0.36392577666601 -0.09981977 0.2675843 -0.95835 191 190 182
3.33405986530126 1.93115358080623 -0.363891297470933 -0.05166351 0.2963858 -0.95367 186 184 173
3.33194211756371 1.93019280208464 -0.363557987106288 -0.01575354 0.2800855 -0.9598458 183 183 174
3.33376806127812 1.92535342101567 -0.36408379513089 0.03225449 -0.04200144 -0.9985968 195 193 186
3.3333855588016 1.92333836907509 -0.363415756219446 0.06615066 -0.1722265 -0.9828337 197 196 188
3.33253544317345 1.92809110594381 -0.363799508439479 -0.03821975 0.1700628 -0.9846918 188 188 178
3.33311819135334 1.92684755900297 -0.364605776575823 -0.07298753 0.09559697 -0.9927407 195 194 187
3.33271584936516 1.92556157945646 -0.364767610707391 -0.007905882 0.02547051 -0.9996443 197 195 187
3.3870486566969 1.85123248392277 -0.340210427835175 0.3011276 -0.8467219 -0.4386162 193 192 180
3.33075762037139 1.92565395797295 -0.365312009718011 0.04619551 0.08877175 -0.9949802 200 197 190
3.33086467657857 1.92427333113528 -0.364954970380807 0.07890604 0.005522559 -0.9968668 199 197 187
3.33314741972958 1.92060934392525 -0.363699961881324 0.2136994 -0.1300607 -0.9682029 195 193 185
3.33417244926451 1.92024189743173 -0.362985848320378 0.2047831 -0.06881119 -0.9763857 192 191 182
3.33278654539352 1.91819342077038 -0.363571713953346 0.1753347 -0.05677015 -0.9828708 196 193 185
3.33174966467456 1.9198977119645 -0.364033834099204 0.1912318 -0.1304244 -0.9728411 198 196 188
3.3307592242199 1.92194166368375 -0.364446378677157 0.1287022 -0.1191008 -0.9845054 200 197 189
3.32995382301896 1.92038510744856 -0.364355325628053 0.1103995 -0.1016495 -0.9886755 205 202 194
3.32904940039977 1.92175271205066 -0.364753557859935 0.07179649 -0.07474101 -0.994615 203 201 194
3.32546774174231 1.92767004955539 -0.363868703598026 -0.1325869 0.2260661 -0.9650466 198 196 190
3.32804344593703 1.92441460327741 -0.364780890363914 -0.04521706 0.06761581 -0.9966863 197 194 188
3.32560152456384 1.92372410495075 -0.364670843734698 -0.1300407 0.03183941 -0.9909973 198 196 189
3.32760836966931 1.91969145524676 -0.364545638730816 0.02706998 -0.09580577 -0.9950319 201 199 189
3.3276563619516 1.91871872374123 -0.364697645248579 0.0365486 -0.1279827 -0.9911028 200 198 189
3.32636113932631 1.9191762423748 -0.364800738626465 -0.08764058 -0.08289696 -0.9926969 201 201 195
3.32913954937282 1.94662203940126 -0.356592111405589 -0.05120333 0.8408784 -0.5387967 181 183 174
3.32819727050242 1.94598866521121 -0.357551734195585 -0.05302062 0.8238701 -0.5642933 180 180 175
3.32897629601322 1.94491245070535 -0.358445330925124 -0.0707062 0.7745661 -0.6285284 182 182 177
3.3058962931156 1.89534379909715 -0.362840934040725 -0.3878318 0.08964333 -0.9173607 207 205 199
3.27818856216935 1.81648059509198 -0.275645650907851 -0.4762844 -0.8012478 -0.3621533 180 178 164
3.32581349472752 1.94564656791715 -0.358103851753825 0.02788939 0.7852448 -0.618557 181 183 179
3.32798664372353 1.94427025775911 -0.360321565343893 -0.01487851 0.7417168 -0.6705482 191 191 185
3.32303194638776 1.94532520650242 -0.359363629436 -0.1747261 0.7203655 -0.671226 194 193 190
3.32232079045725 1.94489377915117 -0.359487081029733 -0.2384806 0.6956584 -0.6776329 195 195 192
3.32000754550954 1.94263663865109 -0.359839390571203 -0.425328 0.4761426 -0.769665 186 186 178
3.32213978283855 1.94134989030094 -0.361196989774051 -0.3439678 0.3518977 -0.8705482 193 192 187
3.31779995691317 1.94326531281323 -0.357132505974518 -0.3555862 0.4912238 -0.7951463 187 186 180
3.31637629714837 1.94050410387975 -0.358387393630088 -0.3178798 0.4791146 -0.8181697 187 186 178
3.31582895836249 1.93887763881461 -0.358668474106636 -0.2716068 0.4368486 -0.8575506 189 188 181
3.321287820192 1.93973192687401 -0.360992337055201 -0.3418252 0.2727986 -0.8992978 188 186 180
3.31928482350588 1.93806444148803 -0.360828027526624 -0.2902499 0.3428711 -0.8934173 195 193 189
3.31780856660729 1.93778005763789 -0.359980131353106 -0.2674811 0.4022761 -0.8755729 196 194 189
3.3163610266684 1.93758661518589 -0.360794699598396 -0.2548506 0.405302 -0.8779416 194 193 187
3.32841466541181 1.94178410532258 -0.36237846859189 0.06171875 0.3632941 -0.929628 205 205 200
3.32381491477953 1.93966272659442 -0.361931345960025 -0.2701022 0.2512409 -0.9294745 196 194 187
3.32480210708654 1.93553749755435 -0.36270937649275 -0.10855 0.03233645 -0.9935649 201 198 191
3.32255074037683 1.93640909520354 -0.362161436909913 -0.1622905 0.06835335 -0.9843727 200 197 191
3.32624756052821 1.93300022317556 -0.361776554574235 -0.05487953 0.1276107 -0.9903048 195 192 184
3.32223418718036 1.93483864318453 -0.36285353415105 -0.1347566 0.03636922 -0.9902111 197 195 188
3.32002598133246 1.93617572658618 -0.361659547499547 -0.2176326 0.1467501 -0.9649355 197 196 188
3.32033443833421 1.93578569789412 -0.361935122705507 -0.2108905 0.115197 -0.9706981 198 196 189
3.3231929773454 1.93235564245884 -0.36197652689221 -0.131787 0.1068708 -0.9855003 198 196 188
3.32127109948101 1.93102449247103 -0.361367216416774 -0.1404433 0.122921 -0.9824287 193 191 183
3.31930494065881 1.92965730200201 -0.36098709388285 -0.1756288 0.0837348 -0.9808889 193 191 183
3.32363678853747 1.93156750828292 -0.362303233198975 -0.1617819 0.1423666 -0.9765031 193 191 183
3.32372851407784 1.92705730069111 -0.363957561363314 -0.2312692 0.1960696 -0.9529277 198 197 192
3.32225217303278 1.9321583642902 -0.361997584052385 -0.14401 0.09501137 -0.9850046 191 188 180
3.31963007306556 1.92747172717623 -0.362258653670375 -0.2432734 0.139775 -0.9598339 199 196 188
3.31929976905856 1.92249989997219 -0.362526506728946 -0.2595755 -0.03298194 -0.9651594 194 192 185
3.3197674008605 1.93421869535525 -0.361579393491561 -0.1435792 0.120195 -0.9823127 198 197 190
3.36601227437276 1.82503654993007 -0.313695539652014 0.3935607 -0.7933447 0.4644504 189 191 184
3.31720846188573 1.9330545438513 -0.362348036534196 -0.1086659 0.1225288 -0.9864981 198 197 190
3.3185806109382 1.93114389277484 -0.361757577903937 -0.1106191 0.04376377 -0.9928989 195 193 186
3.31692096957551 1.93026548259143 -0.362167975760714 -0.04336061 0.0423534 -0.9981613 201 199 192
3.31298119287481 1.92947436155503 -0.361553616048542 -0.04865481 0.1026796 -0.9935238 198 196 190
3.31442083416118 1.92654880816541 -0.361050188631673 -0.002669253 0.08834437 -0.9960864 198 196 188
3.31227127255564 1.92705246470754 -0.361916761334578 -0.0003158473 0.130878 -0.9913985 194 194 188
3.31806827680865 1.92924686636097 -0.361864207357196 -0.1194635 0.08929683 -0.9888147 199 196 189
3.31717118585904 1.92758403503562 -0.362347016142168 -0.08367631 0.08283211 -0.9930444 198 196 188
3.31690020301705 1.92555400016674 -0.361583789608984 -0.07041284 0.1032225 -0.9921628 199 197 190
3.31615456901186 1.92380223636856 -0.362109873725606 -0.08586009 0.007571104 -0.9962784 195 193 187
3.31436745592495 1.92492605638135 -0.361978324304164 -0.0001923226 0.08654328 -0.9962481 196 194 187
3.31293871808994 1.92642683451447 -0.362146663069826 -0.0001686007 0.1315821 -0.9913053 194 194 187
3.31211925314472 1.92578413642544 -0.362792766862453 0.01909534 0.1157985 -0.9930892 195 194 188
3.31533697617669 1.9417024444014 -0.357324105892001 -0.2579379 0.4991332 -0.8272449 188 187 180
3.31438172878935 1.93999953459092 -0.358426983356879 -0.2870861 0.4663209 -0.8367355 191 190 182
3.31451654884988 1.93853015729936 -0.359166084010115 -0.2540502 0.4640823 -0.8485789 185 185 177
3.30969452417622 1.93879869820744 -0.357173309483633 -0.1526847 0.5412161 -0.8269054 185 184 175
3.34518857004902 1.80419348481397 -0.285347644387548 0.7658588 -0.01710964 0.6427811 171 172 159
3.31259363903317 1.93736722057058 -0.359244988317642 -0.225425 0.5013219 -0.8353801 187 187 179
3.41327502544811 1.89711330425824 -0.362143220961239 0.07996097 -0.05573094 -0.9952388 199 200 194
3.31327650548777 1.93381040425465 -0.361187577807851 -0.08410658 0.2967932 -0.9512307 195 194 186
3.31069280063419 1.9337320382839 -0.360306951191184 -0.0433455 0.3458425 -0.9372908 192 190 184
3.30925852514908 1.93534018843004 -0.359768437933511 -0.01825891 0.5197764 -0.8541072 189 188 184
3.30839924411381 1.93388664144609 -0.361012994408575 0.1390789 0.3448494 -0.9282974 194 194 191
3.30805732758149 1.93875246208347 -0.356645789652825 -0.1514727 0.6012756 -0.7845532 189 188 179
3.30765241652883 1.93728785227543 -0.357987201454918 -0.0523417 0.6287137 -0.7758733 185 185 177
3.30375015814979 1.9375055872992 -0.357443803639253 -0.06089522 0.7372863 -0.6728304 183 184 175
3.3027047574309 1.93735952801876 -0.357569528669908 -0.05413678 0.7269914 -0.6845091 183 183 175
3.30681610985386 1.93508227168846 -0.361534278238248 0.2167477 0.5239978 -0.8236787 198 197 198
3.30305883510397 1.93669959301408 -0.358278713864366 -0.05352547 0.7554805 -0.652981 183 183 176
3.30325995406604 1.93572089936453 -0.360601856371698 -0.001016495 0.7260813 -0.6876081 180 181 176
3.30399933357077 1.93504070283799 -0.361776363292233 0.1014554 0.5632182 -0.8200561 179 182 178
3.31276181263763 1.93224380526081 -0.361333525168222 -0.07175503 0.1374643 -0.9879043 195 194 186
3.30976938375508 1.93195122159152 -0.360845223719918 0.02655104 0.2387807 -0.9707105 200 198 193
3.31011996589983 1.9271799921632 -0.361232175335932 -0.006223427 0.1838626 -0.9829323 190 189 183
3.3105377177897 1.92601856927614 -0.362728903122238 0.009878684 0.1608057 -0.9869366 195 194 188
3.30743106598383 1.93262576963197 -0.361211909746596 0.1411633 0.2256497 -0.9639269 189 191 187
3.30332096867888 1.93412129704143 -0.362858743799631 0.1287563 0.4024768 -0.9063301 185 186 186
3.30160382175012 1.93141213929286 -0.36345935235127 0.03764993 0.09519912 -0.994746 190 190 189
3.3075926333466 1.79222691245592 -0.30497530492376 -0.5835496 -0.7236122 -0.3685853 167 166 149
3.3235168770963 1.9254224274323 -0.363971164911115 -0.2636638 0.09071915 -0.9603392 199 198 194
3.32204752636521 1.92499020343425 -0.36373654791843 -0.2720444 0.1047836 -0.9565627 207 205 200
3.37874387698838 1.84310000106992 -0.342264449084329 0.6674548 -0.7413777 -0.06973711 187 188 179
3.29234098634935 1.83375455533662 -0.348916895622525 -0.4341578 -0.7278029 -0.5308577 207 206 198
3.36752939663443 1.89902086264424 -0.364865619214734 -0.08245348 -0.03069822 -0.996122 208 206 202
3.32200593756027 1.91231701554304 -0.364363954086754 -0.01430137 0.2102454 -0.9775441 208 206 200
3.43898446896778 1.87118949322242 -0.317356602445972 0.5441393 -0.798189 -0.2584697 194 195 190
3.28963223998426 1.80337812695042 -0.284575377378449 -0.8386084 -0.4692637 0.276636 162 163 147
3.40717599153129 1.8621668380041 -0.344157957428663 0.3307326 -0.818841 -0.4691644 202 201 193
3.32848893392288 1.89450742860362 -0.365048417113222 -0.04327432 -0.006566596 -0.9990417 194 193 188
3.32300021231006 1.89854116059839 -0.364817142198745 0.004461507 -0.08396275 -0.9964589 202 200 192
3.36617759928988 1.82232867084838 -0.294525909296708 0.8187512 -0.4785142 -0.3172863 198 197 192
3.3459527911347 1.90859413330843 -0.362660729198194 0.004775473 -0.0938751 -0.9955726 196 195 186
3.28430270228014 1.84868691935073 -0.350619066794432 -0.8493005 -0.3532578 -0.3922978 172 171 157
3.30457106713534 1.84921265134524 -0.363583780037121 -0.008103508 -0.03734638 -0.9992695 201 198 193
3.26698605144215 1.84353488642957 -0.285498036349823 -0.9116735 -0.3914914 0.1248433 166 165 146
3.27234684377662 1.83158161215594 -0.317006821873279 -0.9299036 0.305874 -0.2042557 170 173 160
3.40812462946103 1.85275262757738 -0.316592732624398 0.2801392 -0.8667683 -0.4125951 204 202 195
3.43662666975912 1.87009639303997 -0.314120124320474 0.4649356 -0.8716234 -0.155266 197 197 188
3.38714088693481 1.86304721826195 -0.364307198395662 0.08143128 -0.006391585 -0.9966584 207 205 203
3.34726117888505 1.82668318741533 -0.364627526392531 -0.03385601 0.07182221 -0.9968427 186 184 172
3.2737588433535 1.81781547856518 -0.283140518070402 -0.6486734 -0.7415203 0.1713783 184 183 173
