ply
format ascii 1.0
comment File exported by Rhinoceros Version 7.0
element vertex 500
property float x
property float y
property float z
property float nx
property float ny
property float nz
property uchar red
property uchar green
property uchar blue
end_header
3.5962300947442 2.01291058097336 -0.356772116323422 0.4044746 0.3368282 0.8502629 167 167 155
3.59834049271018 2.00889384826739 -0.355905384344497 0.2999189 0.5688385 0.7658142 171 173 155
3.59911141569301 2.01318625472014 -0.358981553684212 0.3994282 0.3783477 0.835051 172 173 162
3.60110198323322 2.0086976118577 -0.357640563509426 0.2234537 0.6198729 0.7522141 196 197 190
3.59657603804276 2.01156187287765 -0.357068815226667 0.3258476 0.4120589 0.8508999 176 176 164
3.59245916747391 2.0111523464949 -0.355916582102845 0.3090022 0.377986 0.8727223 170 172 164
3.59110270467192 2.01159457936542 -0.356198009183655 0.2835426 0.4055887 0.8689657 178 179 180
3.58978410885799 2.01207913968643 -0.356062417921704 0.3252981 0.3737202 0.8686278 164 167 161
3.59116622477607 2.0144991800636 -0.356219518685954 0.3374962 0.1003215 0.9359658 169 171 157
3.58932196245448 2.01423679787292 -0.356576381403182 0.4582757 0.1027488 0.8828511 163 165 154
3.60149812429301 2.00512708744429 -0.352649984344413 0.1994316 0.6789958 0.706535 186 188 180
3.60150876291034 2.00609051297059 -0.353428625945044 0.2172256 0.7225173 0.6563398 179 181 172
3.61524869950032 1.99723445527265 -0.349448721548183 0.2926281 0.7099881 0.6405355 176 178 173
3.61868436928898 2.00560418325998 -0.360599552851534 0.1320146 0.7399088 0.6596265 186 187 178
3.62126733443736 2.00726075401189 -0.363582469422121 0.08469728 0.7540051 0.6513852 168 172 158
3.62156154320427 2.01022546212257 -0.368753581925878 0.05414326 0.6495578 0.758382 172 174 170
3.62958909787999 2.03036564046593 -0.371064716219793 -0.176681 0.2866637 0.9415985 211 202 204
3.63670791511152 2.01850095346911 -0.368362764682133 0.03119551 0.2447535 0.9690834 180 181 172
3.63625340533282 2.02024819780336 -0.368553437156037 0.01976209 0.1761938 0.9841571 185 181 176
3.63472501659354 2.02112502718444 -0.368935136144949 0.01338216 0.1533606 0.9880797 196 189 189
3.6287127519033 2.02262244555287 -0.368899262073976 -0.1189508 0.1761808 0.9771444 203 200 197
3.62717399882236 2.02108065855853 -0.368958510882407 -0.2144488 0.130997 0.9679109 212 210 208
3.63231472554471 2.01772552982147 -0.367747603717189 -0.0644508 0.2192113 0.9735463 203 202 197
3.6287315543489 2.01657492333314 -0.368286034911334 -0.2143163 0.09859206 0.9717757 212 207 205
3.6312525115221 2.0195511617592 -0.367566853749459 -0.0529529 0.1490838 0.9874057 199 188 191
3.63161377272077 2.01995267610785 -0.368256596535684 -0.04136512 0.1564405 0.9868208 199 197 193
3.63511062215928 2.0253122604359 -0.369176300392617 0.0376592 0.2304711 0.9723502 190 190 185
3.63271591143562 2.02869142882027 -0.369539925504023 -0.02400176 0.3066706 0.951513 184 180 175
3.63245732453437 2.02785233909541 -0.369477018979292 -0.042619 0.2844726 0.9577364 189 185 181
3.63830600784333 2.02382630949815 -0.368829704958062 -0.004912384 0.1951445 0.9807622 180 179 171
3.63576101863775 2.02556363620495 -0.369357196156067 0.03480195 0.220774 0.9747038 194 194 190
3.63789058212961 2.02168030521232 -0.368630380537622 0.01595025 0.1514739 0.9883325 182 182 175
3.63295818756511 2.02321642559015 -0.368998911836142 0.01724295 0.1569913 0.9874495 209 203 204
3.63377914263565 2.02391009591584 -0.369115083976353 0.01626156 0.1820799 0.9831493 195 191 189
3.62981009478504 2.0259731517982 -0.369490061226729 -0.1503524 0.2813808 0.9477442 201 198 197
3.63151103537368 2.02488395327518 -0.368892292124997 -0.03365989 0.2041267 0.9783656 214 212 210
3.62715295451801 2.02543021800278 -0.370291680584403 -0.2255555 0.3037401 0.9256709 200 200 196
3.62937496885553 2.02393801606027 -0.369259110965759 -0.1172417 0.216549 0.9692063 201 185 191
3.6259917373318 2.02334318114724 -0.369477260405454 -0.240021 0.2651816 0.9338461 200 192 194
3.62693492329368 2.02863364611486 -0.37173785860515 -0.1382573 0.2463723 0.959263 228 199 218
3.61731436017261 2.03280238742567 -0.368504176948472 0.3744248 -0.3054355 0.8755085 183 177 174
3.61893428602118 2.035642309688 -0.368655597518977 0.3915083 -0.1414025 0.9092451 180 180 170
3.62087084068076 2.03279050800835 -0.370519109646723 0.3285784 -0.2522399 0.910171 198 180 188
3.61833640963337 2.03328851328172 -0.369035511878593 0.3644784 -0.3025819 0.8806814 188 185 181
3.61845292468134 2.03071491428163 -0.37030343022921 0.2716332 -0.3837112 0.8825991 231 191 218
3.62284993919611 2.02945937427585 -0.371597192191336 0.1534739 -0.107723 0.9822634 233 182 219
3.62450083321881 2.02843156622503 -0.372299905188108 -0.004898445 0.09652751 0.9953183 236 187 226
3.62364528200955 2.02880579164648 -0.372212018909104 0.06039776 0.01708042 0.9980282 229 182 214
3.61910545605118 2.02818270276575 -0.371773841053261 0.1208517 -0.2854764 0.9507356 226 186 212
3.62161761610472 2.0275089259225 -0.371725169634598 0.09902728 -0.08379025 0.9915507 228 182 215
3.61903406392362 2.02730677041102 -0.37184291733981 0.0756998 -0.2129301 0.9741306 210 181 195
3.61931279348016 2.02560446883024 -0.372177935558071 -0.05873743 -0.1769067 0.9824734 233 199 221
3.61295119439643 2.03225651613728 -0.366996414388848 0.286999 -0.3009335 0.9094343 198 175 186
3.61470405952839 2.03341945944616 -0.367124231996684 0.3538414 -0.2403994 0.903883 181 180 172
3.61716063926829 2.03067850969198 -0.369718375082155 0.3459382 -0.4242443 0.8368653 220 181 205
3.61405397844212 2.02962404557268 -0.368693010462222 0.3403633 -0.5015171 0.7953826 224 181 207
3.61208091587278 2.02955505030473 -0.368168529394285 0.300341 -0.4925889 0.8167934 229 181 214
3.61331136151658 2.03032487343645 -0.367423560336462 0.3254431 -0.4395689 0.8371774 219 175 203
3.61281751854675 2.02771650738682 -0.369780405655601 0.3353226 -0.5173373 0.7873506 196 182 185
3.61561829213982 2.02769992017713 -0.370728450325237 0.2461783 -0.5159137 0.8205056 195 184 185
3.61377093795756 2.02823860853678 -0.370465181772087 0.3318915 -0.5424231 0.7717676 201 183 189
3.61694599556152 2.02626999624408 -0.372081310545292 0.09965217 -0.3879358 0.9162834 200 192 191
3.61638524126072 2.02430868741025 -0.373378722980804 -0.01756554 -0.4105881 0.9116518 194 186 186
3.6145383530662 2.02542594672332 -0.372278801636139 0.1980907 -0.5024575 0.8416035 197 194 190
3.61753812540229 2.0289481839948 -0.370930148864423 0.250921 -0.4299858 0.8672663 229 190 215
3.61816904690824 2.02963237196266 -0.370975167466836 0.2597772 -0.385101 0.8855581 227 182 212
3.61834624793478 2.02559753890968 -0.372482842930864 -0.1072653 -0.2942671 0.9496847 221 198 211
3.62286039877061 2.0198898980488 -0.370042990548457 -0.3848183 0.05286531 0.9214771 219 214 215
3.62356560518836 2.02070367481258 -0.369772159652068 -0.3536873 0.1010362 0.9298909 218 214 214
3.62189142400597 2.01872478835378 -0.37061675354732 -0.382471 0.06242912 0.921856 225 216 221
3.62606522626631 2.01780969064196 -0.368777349928297 -0.2455015 0.04408089 0.9683935 218 213 213
3.62722960607597 2.01592319486226 -0.368791419989595 -0.2768078 0.06663695 0.958612 210 208 205
3.62527640129404 2.01420182505305 -0.369183245354379 -0.2318717 0.2122485 0.9493082 206 205 202
3.62550780055179 2.01282319434448 -0.368783568194372 -0.2506266 0.3643878 0.8968878 210 209 207
3.62471384364853 2.01532214358907 -0.3694640576869 -0.2772921 0.08593099 0.9569352 210 209 206
3.62670127059525 2.01917161268691 -0.368994277671283 -0.2360593 0.06187631 0.9697666 224 222 221
3.62642647095954 2.01896442227449 -0.368994001465051 -0.2405812 0.05984403 0.9687824 227 225 225
3.62051961141309 2.01987743793309 -0.37154614788247 -0.4554007 0.07779836 0.8868808 246 205 236
3.61963079603882 2.01881801401304 -0.37174764224179 -0.453326 0.09427982 0.8863447 244 205 234
3.6188045145837 2.01777183569075 -0.372424284225923 -0.3931919 0.2181917 0.8931923 244 206 235
3.62429575480962 2.01217898323627 -0.369160771140027 -0.1900324 0.5007066 0.8445002 206 205 202
3.62130510946613 2.01624994184135 -0.37072219154888 -0.3083496 0.2164803 0.9263136 216 214 212
3.6197002632503 2.01644901571859 -0.371821484958087 -0.3284084 0.2299609 0.9161145 226 211 218
3.62224374843974 2.02321133781967 -0.37072965164842 -0.2846284 0.135534 0.9490085 225 197 215
3.62188854092951 2.02419992171479 -0.371287533756726 -0.316789 0.1198185 0.9408976 249 203 238
3.62278330193701 2.02237967498769 -0.370575130338306 -0.3378386 0.08637632 0.9372322 232 213 225
3.61928333377442 2.02247576416177 -0.371988154781884 -0.4004731 -0.02964729 0.9158288 251 203 243
3.61863123914982 2.02308457068028 -0.372606625780609 -0.2850246 -0.1149214 0.951606 246 203 238
3.61676233361671 2.02222172097502 -0.374147769038466 -0.2379442 -0.1948216 0.9515393 209 197 203
3.63880966181131 2.00229168408264 -0.359957692475548 0.03959693 0.6737189 0.7379261 187 187 182
3.63710652123002 2.00558944198325 -0.361898173244394 0.04070421 0.5662354 0.8232379 183 184 176
3.63965809275897 2.00766800543627 -0.363063114172658 -0.05113433 0.4632796 0.8847357 176 177 165
3.63993021418274 2.00499604647149 -0.361917219638392 0.003934756 0.5308049 0.8474849 184 183 173
3.63324133192202 2.0048028448126 -0.360481493528542 0.09164422 0.6312385 0.7701554 173 175 167
3.63388573855838 2.00589288049449 -0.362470142191601 0.0753719 0.6069603 0.7911499 184 185 180
3.63956078975541 2.01299203664438 -0.365297488813336 -0.02965214 0.4607447 0.8870373 180 181 175
3.63611684621744 2.01433534179065 -0.36619024359355 -0.05139059 0.3891661 0.919733 175 178 166
3.63910415853342 2.01141834614768 -0.364742472965696 -0.06852283 0.4094205 0.9097689 189 189 185
3.64103228310601 2.00809310589003 -0.363121675553539 -0.05414092 0.4180259 0.9068203 181 181 172
3.63939795090853 2.00880138097729 -0.364043781713916 -0.07933819 0.4274236 0.9005634 191 191 185
3.63395097077596 2.00995887463283 -0.36530758364563 -0.1323658 0.4580541 0.8790141 187 187 180
3.63425818165491 2.00898973973235 -0.365133635160636 -0.07411598 0.4891823 0.8690267 195 193 186
3.63117919648372 2.01098988119021 -0.365434694476677 -0.09919016 0.4871873 0.8676462 181 181 173
3.63478918462562 2.00770982089306 -0.364403395137506 -0.01274328 0.5307236 0.8474492 188 187 178
3.63008188213581 2.003984713336 -0.360094413368793 0.02327398 0.5883096 0.8083008 189 189 184
3.62951334596585 2.00574434897549 -0.361518591067964 0.03642188 0.6132842 0.7890221 185 186 180
3.62836057710284 2.00525873944536 -0.361022762933779 0.01545622 0.5965648 0.8024161 172 169 163
3.62536305550211 2.0048839043505 -0.361140685567531 0.01198705 0.6485935 0.7610406 171 172 161
3.62566384938597 2.00559878031329 -0.361474022180297 0.01177851 0.678193 0.7347894 185 185 177
3.62774715031781 2.00824126333739 -0.36192446269311 -0.03553195 0.6443326 0.7639194 185 186 179
3.62715938462058 2.00872796986706 -0.363494406242911 -0.1052603 0.7017696 0.7045847 191 192 186
3.62157995253021 2.00478019645836 -0.36168401966684 0.1262179 0.7154525 0.6871658 186 188 183
3.62358341431593 2.0094807079296 -0.365753572427662 -0.05887042 0.7203024 0.6911575 184 185 182
3.62465408123047 2.01015452940778 -0.368638784150369 -0.1835414 0.6278499 0.7563841 198 198 191
3.63870476032743 2.0138940364368 -0.365845555671713 -0.02508324 0.4268324 0.9039828 177 178 172
3.640022588412 2.01509488720191 -0.367004156839386 -0.0115581 0.428461 0.9034864 185 185 178
3.64136605039782 2.01479101898658 -0.366621334146947 -0.03283471 0.4556268 0.8895651 171 172 164
3.63727082287583 2.01501952385135 -0.36671276790437 -0.005433038 0.4086099 0.912693 183 184 177
3.63787364355154 2.01535309504021 -0.367061341490242 0.00262357 0.4087052 0.9126627 187 188 183
3.63706023975495 2.0137687925163 -0.366200818796027 -0.03328902 0.4004493 0.915714 195 195 186
3.64068696058469 2.01682232932132 -0.368736915994482 -0.001366702 0.3434922 0.9391545 201 201 195
3.63378775574371 2.0150179756584 -0.366432149319149 -0.08254502 0.3357612 0.9383234 192 193 187
3.63468619498052 2.01720107764225 -0.367747444880189 -0.05711402 0.3111027 0.9486586 195 197 190
3.62479400830404 2.01073273621041 -0.369795621654696 -0.1912044 0.5511309 0.8122165 201 200 196
3.6041749050863 2.01346060551322 -0.360402600321745 0.2844734 0.5150824 0.8085573 174 177 167
3.60170655465544 2.01496010260774 -0.360155578509522 0.3670523 0.4369741 0.8211737 175 176 165
3.60687885048447 2.0135667757041 -0.362062980704234 0.3155086 0.568001 0.7601507 179 180 171
3.60161227310588 2.02188726635836 -0.363122202839844 0.5653392 0.1636319 0.8084654 168 169 156
3.59964661244281 2.02199576878978 -0.36225424424225 0.5551202 0.1759425 0.8129488 172 171 157
3.60029921676468 2.0189497136741 -0.362675762331727 0.5446802 0.203507 0.8135775 176 177 166
3.60264791599537 2.01992228133298 -0.363505350999675 0.548702 0.2696781 0.7913279 181 181 173
3.60157804015099 2.02414069578612 -0.363806343972076 0.5306454 0.1218338 0.838792 170 171 157
3.6028940949333 2.02434228530653 -0.364101656695707 0.5329582 0.1294549 0.83618 174 176 165
3.60301299977246 2.02210826212248 -0.363937791585484 0.563145 0.1424242 0.8139921 169 170 156
3.60430768947053 2.01837894259301 -0.364107220702153 0.5164695 0.4366359 0.7366195 172 173 162
3.60454889203888 2.01575402014532 -0.363394570339421 0.3894009 0.4953426 0.7765325 181 181 172
3.60484962128839 2.02015404838291 -0.365925530711621 0.6157653 0.2308731 0.7533464 179 178 170
3.60466969960991 2.0193313175884 -0.365152536438111 0.5963886 0.3550741 0.719891 179 180 172
3.60936289057285 2.01075940437341 -0.36007361105128 0.4213209 0.4958936 0.7593275 188 187 180
3.61110555168855 2.00870909186227 -0.360507593173845 0.4743912 0.4974115 0.7263159 176 176 167
3.61075383220404 2.01147595998283 -0.362199717244317 0.4749738 0.5306349 0.702016 183 184 178
3.60908235537316 2.01252383961899 -0.36210084046075 0.4032506 0.5391588 0.7393894 180 182 173
3.6117842237596 2.01231018724872 -0.363483499478436 0.4458892 0.5434997 0.7111898 179 180 174
3.61214288749728 2.00654814979201 -0.360827692144884 0.395714 0.5647188 0.7242259 189 189 183
3.6132851946919 2.00744359089198 -0.362302760714024 0.3479652 0.5763952 0.7393841 186 186 179
3.61630246646751 2.00809142675165 -0.362960437369475 0.2755708 0.6325121 0.723871 192 193 188
3.61351339042873 2.01364726893052 -0.365473131396277 0.4299741 0.5901794 0.6832353 164 166 157
3.6111045034435 2.01391738331978 -0.364525936205979 0.4383779 0.5911478 0.6770296 189 190 186
3.60999170495109 2.01414390397657 -0.364195103018275 0.440823 0.5881619 0.6780418 171 171 160
3.61171954010645 2.0141575523186 -0.364666368847688 0.4680238 0.6034533 0.6455988 188 189 181
3.61601382963016 2.01416999254083 -0.367386341303305 0.3225236 0.6284945 0.7077945 162 164 153
3.61485775595451 2.01009223821481 -0.364736206859454 0.352606 0.556112 0.7526011 189 190 187
3.59553648761066 2.01890755300544 -0.357892183542807 0.6171494 0.1619885 0.7699912 170 170 157
3.59661768137437 2.01933272870518 -0.358690633342645 0.6203966 0.1661504 0.7664869 170 170 154
3.59730734491424 2.01509401579855 -0.359360244290192 0.5270101 0.2976829 0.7960184 176 176 165
3.59405156369047 2.01739946864618 -0.357498193370348 0.5127935 0.06749775 0.8558545 173 171 164
3.59723144039054 2.01919176530519 -0.360079034523291 0.6060128 0.1906388 0.7722729 168 170 154
3.59946468866705 2.01796680406607 -0.360550708650692 0.5544697 0.2539702 0.792504 166 170 152
3.59926682057113 2.0164946303687 -0.36083328886707 0.5022014 0.3357772 0.7968987 167 168 150
3.60592203773562 2.02596110130548 -0.367111515887855 0.4764278 -0.1356124 0.868692 182 182 172
3.6068495209687 2.02383274711628 -0.367394467316889 0.6405551 -0.01331613 0.7677967 174 175 163
3.60943671948186 2.03032257826945 -0.367224787842198 0.1965373 -0.3056206 0.9316486 230 178 210
3.60919712085025 2.03019165144329 -0.367073419065805 0.2165612 -0.3220488 0.9216213 228 178 210
3.61032014465232 2.02841492181772 -0.368295847356792 0.3349278 -0.4518393 0.8268401 209 182 197
3.60563032358975 2.02760739302853 -0.36705962171033 0.412557 -0.09351211 0.9061193 184 180 174
3.60532718097085 2.02781632200884 -0.366571975508171 0.3929957 -0.06192882 0.9174525 180 176 168
3.60664183636842 2.02936920980716 -0.367292719666088 0.2741988 -0.1356977 0.952051 228 191 216
3.60757951677001 2.02778226865478 -0.367900778356289 0.3689482 -0.2514999 0.8947765 194 181 183
3.60709331103716 2.02672225548594 -0.36781266985839 0.4578031 -0.2525809 0.8524196 183 180 172
3.6078060699617 2.02493831475397 -0.368192131027242 0.5187142 -0.1881231 0.8339936 184 184 175
3.60949028225518 2.02394755633018 -0.369645285310742 0.6089183 -0.2758203 0.7437349 179 180 168
3.60808420505223 2.02132656162695 -0.369655715027431 0.7135707 -0.1669103 0.6804099 181 183 176
3.60993503694275 2.0227657782622 -0.370294940882921 0.6760979 -0.3167808 0.6652379 188 187 178
3.60365979788285 2.02712273544122 -0.365541327303693 0.5143486 0.06526463 0.8550941 173 173 163
3.60455671509789 2.02494655441471 -0.366683088328084 0.5881792 0.0428171 0.8075964 175 176 163
3.60571835069213 2.02350872992278 -0.367132825776135 0.6051444 0.005974608 0.7960933 178 178 169
3.60659228816708 2.02157922520591 -0.367217311926258 0.6904716 0.1012829 0.7162337 176 175 163
3.60721074733563 2.0204178136189 -0.368710315646419 0.7225407 0.01377167 0.6911911 178 178 173
3.61274736268946 2.02412979310133 -0.371926045884711 0.377102 -0.5261399 0.7622145 196 194 187
3.61000618088087 2.02508321434402 -0.370799008057827 0.53459 -0.4142213 0.7366371 200 198 194
3.61551556060773 2.02053527405999 -0.37480257983022 -0.2324013 -0.1486054 0.9612003 205 199 204
3.61318291770913 2.02138560585268 -0.374920144140612 0.09753203 -0.3222591 0.9416139 187 180 182
3.61614520257731 2.01874912187371 -0.373522507859941 -0.2919924 0.03162591 0.9558976 241 202 234
3.61218980658105 2.02116532008105 -0.374077331549968 0.4044517 -0.2126928 0.8894833 187 183 185
3.61228304134161 2.01884004666786 -0.375830388451953 0.2086234 -0.05232595 0.9765952 176 172 172
3.58569572882103 2.00863115842333 -0.349312072547108 0.7937135 0.2584378 0.5506622 180 181 173
3.6029481877929 2.07522695215631 -0.353657123488358 0.9206118 -0.3143144 -0.2316903 173 172 165
3.602834336512 2.07675318653474 -0.354190393928358 0.9123698 -0.3455747 -0.2194528 173 175 166
3.60381832416401 2.07953375167813 -0.356245599069744 0.8993047 -0.4370646 0.01501531 180 179 173
3.60322979556402 2.07858713344696 -0.358126038140522 0.8993653 -0.4220939 0.1139246 180 181 169
3.60516598377032 2.07974886712676 -0.358494561419553 0.8312451 -0.5126922 0.214891 184 185 175
3.60556791415331 2.07972062701775 -0.35973911003522 0.7954594 -0.5476026 0.2595685 185 185 174
3.60201211849874 2.0725528431898 -0.354768632778132 0.9718091 -0.1706248 -0.162709 164 168 151
3.60164912170271 2.07019493263109 -0.355130409235866 0.987814 -0.124649 -0.09319893 167 168 156
3.6015763115053 2.06883673675289 -0.356314347002145 0.9906931 -0.1109465 -0.07885467 169 172 157
3.60185156384697 2.06693488927546 -0.35533463060277 0.9798753 -0.1953357 -0.04109022 168 170 157
3.60122870954803 2.06651864512379 -0.35512567830608 0.9710721 -0.2349786 -0.04247383 168 170 157
3.60163944433258 2.06972059230056 -0.357155923124387 0.9920785 -0.08906142 -0.08859058 173 174 162
3.6009369008754 2.06807362903841 -0.358461444749827 0.9854532 -0.1491019 -0.08155109 173 175 162
3.60111224796404 2.06704598570407 -0.35877862683219 0.9878052 -0.1355956 -0.07651549 168 169 151
3.6008693979251 2.06689167367658 -0.360063317618186 0.9858105 -0.135173 -0.09952946 173 173 158
3.60161563090383 2.07447977563446 -0.357497319428987 0.9675649 -0.2506596 -0.03143044 172 174 162
3.60118334467194 2.07499401639366 -0.358253892978225 0.9595427 -0.2806673 -0.0224423 171 173 160
3.60245591976707 2.07573713700627 -0.36249419375203 0.8865402 -0.40917 0.2159312 182 181 174
3.60174228122838 2.07308624251244 -0.361091032540688 0.966269 -0.2334585 0.1087258 174 174 162
3.6007242168366 2.06808993389241 -0.361508679882942 0.9826532 -0.1823786 0.03362657 174 175 161
3.60247084355431 2.07500443066787 -0.36303128826083 0.9031891 -0.3493744 0.2493731 176 177 167
3.60155345169092 2.06935592850595 -0.363708909349828 0.9547572 -0.1901984 0.2286117 178 178 166
3.60054872483166 2.06298865021455 -0.358222832837635 0.9318919 -0.358135 0.05759313 168 170 156
3.60126218983466 2.0636517136136 -0.357552339608813 0.9392712 -0.3429396 0.01273006 164 167 149
3.59962472682741 2.06069547638258 -0.359516070600135 0.8838511 -0.4421714 0.152616 169 170 158
3.60050207203718 2.06191417923577 -0.360235780946633 0.939243 -0.3421372 0.02765242 166 166 152
3.59877904481497 2.05841727592034 -0.361212258384353 0.8803422 -0.3695372 0.2973885 164 167 154
3.59997679206733 2.06445960415208 -0.36162809688638 0.9842817 -0.1742395 0.02880967 170 170 157
3.59979090245178 2.06241021332505 -0.363697531830328 0.9596209 -0.2160519 0.1801369 172 173 161
3.5991828371106 2.05863782859839 -0.365669907076066 0.8781846 -0.1046789 0.4667272 192 193 184
3.60003311584913 2.05746060378349 -0.366518138024028 0.8114046 -0.1035434 0.5752403 193 193 189
3.60095136331167 2.0555418047834 -0.367189549653766 0.7423516 -0.08213828 0.6649567 184 186 182
3.60646778720663 2.06203300511403 -0.369771692130475 0.5010782 -0.07606599 0.8620526 185 184 175
3.60740971754159 2.06045685010871 -0.370830035491704 0.4097238 -0.04481667 0.911108 184 184 174
3.60000539764944 2.065632996875 -0.363726524527153 0.9615373 -0.1596835 0.2234888 173 174 162
3.60054969936377 2.06672267126308 -0.363867386774733 0.9635928 -0.1689521 0.2072298 178 178 167
3.60112980092109 2.06413522004188 -0.36609455669531 0.8265151 -0.1209283 0.5497718 184 184 175
3.60201225553922 2.06255339205656 -0.367026569413611 0.6687708 -0.1550722 0.7271163 182 183 173
3.60075229952945 2.06699186328631 -0.364964010199979 0.927512 -0.1427743 0.3454519 175 175 165
3.60231715619101 2.0648316179616 -0.366700375804146 0.7738837 -0.09645461 0.6259397 175 176 166
3.60270709370257 2.06458031625557 -0.367173562306203 0.7113172 -0.08293647 0.6979609 176 177 167
3.60027265492844 2.06010751387317 -0.366581216780566 0.7707636 -0.1929379 0.6072055 190 188 185
3.6012094141828 2.06101056955502 -0.366951787018226 0.7072154 -0.1912514 0.6806388 193 193 189
3.60311390511532 2.05968422047544 -0.369016632707048 0.5522769 -0.2007155 0.8091375 190 191 185
3.60267749893009 2.05750537255396 -0.369273145750105 0.5912095 -0.1643039 0.7896047 202 202 198
3.60165362306835 2.0579538054543 -0.368339995573982 0.645991 -0.1540859 0.7476317 196 196 191
3.60380894056928 2.06399562988567 -0.368464995901099 0.555957 -0.05065424 0.8296662 181 182 172
3.60474275993527 2.06062320681812 -0.369020558041727 0.4981977 -0.1978511 0.8441883 186 186 176
3.60402563716785 2.05847554247392 -0.369677119535214 0.4696391 -0.1582214 0.868565 196 195 190
3.60741571890371 2.08235474111719 -0.360726460191924 0.5535275 -0.6757415 0.4868067 183 184 173
3.61098579955719 2.08474074401163 -0.360786003969376 0.404411 -0.5122055 0.757692 188 188 182
3.61324556971133 2.08225673601916 -0.363865727059363 0.4034482 -0.6379041 0.6559786 191 190 183
3.60932853734825 2.08401253508509 -0.361027713355814 0.4277331 -0.6368788 0.6414279 191 190 183
3.6085177069992 2.08299185681109 -0.361739649132131 0.4556688 -0.6902902 0.5620191 188 187 180
3.60785461807056 2.08201836851563 -0.362361099479913 0.4760793 -0.7535468 0.4533385 181 182 171
3.61060420658074 2.08122931122005 -0.363877832298924 0.2356327 -0.7610486 0.6043859 199 198 192
3.61364690836201 2.08120952405837 -0.364688099806958 0.4624175 -0.6504098 0.6026087 191 191 184
3.6126470290029 2.08011657142664 -0.365224165550975 0.3315025 -0.7083185 0.6232103 191 191 184
3.61164233237693 2.08055954059911 -0.363949939618898 0.2456857 -0.722155 0.6466303 198 196 191
3.60713177245607 2.08097915675358 -0.361510414622272 0.5731162 -0.7119163 0.4058485 181 182 169
3.60467573442578 2.07872650348122 -0.362989867183635 0.76798 -0.6121508 0.1883565 178 179 165
3.60531824989492 2.07951112672089 -0.363364988400135 0.7368249 -0.6264578 0.2542435 175 177 165
3.6037414046696 2.07811385040421 -0.363922135320507 0.7792233 -0.539825 0.3184338 185 185 175
3.60454078121877 2.07824668788778 -0.365320689689762 0.6592552 -0.522486 0.5407317 189 189 182
3.60689166285251 2.08081153709485 -0.363879826683266 0.4578352 -0.8066576 0.3737519 177 179 167
3.60759642254963 2.08203017663477 -0.36437408831873 0.317151 -0.7844031 0.5330356 210 207 201
3.60845373215218 2.08134738163529 -0.365203362876668 0.2459838 -0.7706413 0.5878808 196 194 187
3.60948897351702 2.07721605420347 -0.367815709694561 0.3022741 -0.4822161 0.8222517 185 184 174
3.61001089014431 2.0756688782883 -0.368391554002339 0.3377185 -0.3767319 0.8625655 187 185 176
3.60829089354248 2.0788820013936 -0.367045269688061 0.2885489 -0.5496897 0.7839521 183 183 173
3.60534577923654 2.07797841459276 -0.366494538371591 0.5698024 -0.4963605 0.6549439 190 189 181
3.60663873065618 2.0761174260572 -0.36714510911105 0.3920463 -0.4250505 0.8158626 191 189 179
3.61502681041005 2.08093986238947 -0.367015686181046 0.5160877 -0.6221168 0.588748 182 185 173
3.61369564360278 2.07837552537173 -0.368673596438232 0.4003309 -0.5165676 0.756897 179 181 173
3.61728951515568 2.08203353522463 -0.369772678891839 0.318005 -0.4964045 0.8077471 195 194 189
3.61424683964181 2.07862570663035 -0.369783120287686 0.3983834 -0.4625695 0.7920354 181 182 176
3.6107447425981 2.07798525607734 -0.368052082201927 0.2904193 -0.5580535 0.7773242 186 186 177
3.60722202975805 2.07911253931276 -0.367162874080968 0.3213187 -0.5799461 0.74861 193 191 184
3.61076174578036 2.07191741274828 -0.370699063751345 0.2684413 -0.4156989 0.8689842 194 193 187
3.61134309861874 2.06652138428452 -0.372810812071219 0.2477798 -0.1221605 0.9610838 199 197 193
3.61284094297572 2.06629162003928 -0.372847418178897 0.1182676 -0.08842569 0.9890367 187 188 180
3.6139541669193 2.07420623370809 -0.370693296093829 0.2371657 -0.2936787 0.9260158 187 186 177
3.61605290792497 2.07596483450575 -0.370808262641958 0.07410225 -0.2290227 0.9705964 185 185 176
3.61697164847129 2.07324864165473 -0.371408416919954 0.02420108 -0.2223229 0.9746727 202 200 193
3.61828856793996 2.07825603218177 -0.370623171291988 -0.01386949 -0.1595004 0.9871004 194 194 187
3.61731383441854 2.07784398370637 -0.370470460465922 0.106229 -0.2121328 0.97145 187 187 178
3.62056140861716 2.07010040016362 -0.371741739898012 0.09363799 -0.4207331 0.9023389 189 189 179
3.61815621927673 2.07162393856973 -0.371722321732883 0.03556633 -0.284255 0.9580888 201 199 192
3.61735802896219 2.0684818933452 -0.372222458709736 0.11833 -0.2779502 0.9532794 189 188 182
3.61920583636083 2.06794808484116 -0.37324159033348 0.1829596 -0.3252383 0.9277639 187 187 178
3.61299741638864 2.07499020115785 -0.369976729186 0.2909479 -0.3227842 0.9006441 184 184 175
3.61261214411562 2.074139071266 -0.370611003439807 0.3063331 -0.3035437 0.9022313 187 186 177
3.61353673977088 2.07248630154858 -0.370731796643541 0.1955819 -0.3033586 0.9325885 187 186 178
3.61288254404456 2.07031545546941 -0.371469985884664 0.1461055 -0.3029583 0.9417375 187 185 179
3.61394917997018 2.06918589715557 -0.372053901476941 0.07841562 -0.2579943 0.962959 185 184 176
3.61475383078324 2.06809297160194 -0.372437255143511 0.08010642 -0.2316354 0.9694989 195 193 187
3.61216075625514 2.06887387957732 -0.372301292727436 0.1700687 -0.236076 0.9567365 189 189 182
3.60997808386727 2.06938221404017 -0.372128480444427 0.3015375 -0.234249 0.9242308 192 191 185
3.60348220739257 2.07578538618592 -0.366149450824139 0.7104368 -0.4064374 0.5745329 189 188 182
3.60358619610023 2.07160954513053 -0.368082645789404 0.6202989 -0.2075039 0.7564201 186 184 179
3.60615091907115 2.07280464620736 -0.368550182104797 0.41431 -0.3658969 0.8333466 183 183 173
3.60235587030562 2.0684508193765 -0.367774058842991 0.7435656 -0.1071576 0.6600208 190 190 183
3.60300768232058 2.06762944713062 -0.368089244992862 0.6671104 -0.0709611 0.7415715 186 187 178
3.60358437178334 2.06961405330161 -0.368299082676286 0.6482323 -0.1442386 0.7476563 187 187 179
3.60643668510106 2.06752669331716 -0.369599814222555 0.5399764 -0.0613641 0.8394403 182 182 174
3.60605555556148 2.0664237228171 -0.369667403094261 0.5416992 -0.0305733 0.8400162 181 181 172
3.60721695258911 2.07174348345627 -0.369276950986569 0.3724922 -0.379493 0.8468971 183 183 173
3.60603470198281 2.07088989824119 -0.368896317635968 0.4415219 -0.3086299 0.8424999 184 183 176
3.60716451931912 2.07332476444689 -0.369046462393532 0.3295854 -0.3788404 0.8647852 181 181 172
3.60769506144017 2.06933470345813 -0.370530685210546 0.4098261 -0.2148596 0.8864976 178 178 172
3.60771004754221 2.06971148381971 -0.370835066419296 0.3965464 -0.2412962 0.8857353 180 181 174
3.60763990579015 2.06933935018729 -0.370949756756142 0.4036283 -0.220777 0.8878861 179 179 173
3.60824449523361 2.0649143849052 -0.370752763808226 0.5001552 0.009327174 0.8658856 172 173 161
3.60869315352847 2.06405714922953 -0.371168567935641 0.4662435 0.02536147 0.8842928 181 180 171
3.60664100675395 2.06475045348747 -0.370115099283584 0.5333471 0.002951507 0.8458913 176 176 166
3.60750268506115 2.06103389656165 -0.371153568125799 0.4242859 0.01634498 0.9053807 182 182 173
3.60975705536922 2.06793088884802 -0.372557872133412 0.319758 -0.1658875 0.9328644 194 192 189
3.62211115101668 2.05584039888345 -0.35896225065851 0.5805926 -0.8050264 0.1218388 196 192 181
3.61721532636165 2.05280135913774 -0.372220318268274 0.1905796 0.118833 0.9744527 225 180 211
3.6204751052216 2.04017553934323 -0.369474642152034 0.3716759 0.30984 0.8751321 177 178 169
3.62290638695171 2.04182465001658 -0.371500395933162 0.2959382 0.2657385 0.9174986 179 177 167
3.62385895844234 2.05106686836325 -0.37271302226418 0.2529993 0.1437323 0.9567301 215 176 203
3.62763531397217 2.04854703866078 -0.373677039493978 0.2326189 0.1159339 0.9656334 205 179 193
3.62985009944792 2.04789756123304 -0.374346690487548 0.1101037 0.1125882 0.9875227 191 173 180
3.62879119767285 2.04846161587061 -0.374280616074009 0.1605602 0.1174211 0.9800167 196 178 186
3.62639641326749 2.04974979151451 -0.373279236037373 0.2537766 0.1053495 0.9615086 193 173 180
3.62637032225904 2.04480113919171 -0.373447478663706 0.2288975 0.09647489 0.9686581 207 185 195
3.62849963446745 2.04720167446381 -0.37395773988733 0.2007975 0.08982676 0.9755058 222 181 208
3.61859373329284 2.04982396698634 -0.371914162253037 0.1163486 0.1397977 0.9833207 205 187 194
3.62026655485576 2.04760174270628 -0.372109339432158 0.1746522 0.08715721 0.9807651 209 198 201
3.62163022618877 2.05242905904461 -0.372732969598104 0.1858739 0.2111489 0.9596182 219 169 203
3.62058220364259 2.05347067908308 -0.372368063081696 0.1744278 0.1750558 0.9689842 222 177 209
3.62135073055961 2.04970999890137 -0.372017585374818 0.1641149 0.1123288 0.9800248 214 174 198
3.61812447759429 2.05129557102535 -0.371933472595311 0.1421517 0.1623045 0.9764477 215 179 202
3.62302135496136 2.04576930807002 -0.372355355706128 0.2302893 0.08079668 0.9697622 196 187 187
3.62547009585059 2.04411902264316 -0.373215388619321 0.2332332 0.133444 0.9632211 203 192 196
3.62383579898469 2.04347035553324 -0.372916085142875 0.2447789 0.1637153 0.9556572 191 186 183
3.62086522505135 2.0455198242983 -0.371740565161977 0.1974489 0.1148735 0.9735594 183 182 175
3.62027447291627 2.04417149099765 -0.372009643011235 0.2843969 0.211946 0.9349852 183 181 173
3.62318402443972 2.04851781738533 -0.372631168107701 0.2292621 0.07811376 0.9702253 229 179 214
3.60642975986949 2.04583005224941 -0.368650252730919 0.152518 0.1997392 0.9679062 177 172 169
3.60428086166224 2.04673842427208 -0.367981611747459 0.1386086 0.2386017 0.9611748 179 178 174
3.60588174275728 2.04490565453853 -0.36810709159464 0.1455007 0.1763101 0.9735216 180 175 171
3.60974258773978 2.04876335120906 -0.370315335054824 0.1507441 0.303921 0.9406956 182 182 174
3.60971750239661 2.0477310619561 -0.370275603498109 0.1628943 0.3151766 0.9349487 184 184 176
3.60930678222036 2.04750078890346 -0.370152348235971 0.1603181 0.3027726 0.9394822 181 180 174
3.60426201904467 2.04969688216618 -0.36953654733851 0.2935563 0.1969493 0.9354334 177 179 174
3.60674929327894 2.04819101319641 -0.369094711905344 0.1610804 0.3264332 0.9313938 172 173 166
3.6136318965287 2.05708751132018 -0.371417685247509 0.1754743 0.1083884 0.9784992 201 199 195
3.6085706313496 2.05822449306319 -0.371013913427425 0.2169863 -0.04601119 0.9750897 193 193 185
3.61210116432284 2.05584066484345 -0.371388401830385 0.1458099 0.0578304 0.9876209 200 197 196
3.61472663931087 2.05102049425072 -0.372121375561499 0.1472652 0.1203328 0.98175 189 185 183
3.61516544834155 2.05337433730716 -0.372087360419014 0.1650056 0.08623138 0.9825158 226 193 215
3.60837419914984 2.05392730256868 -0.371500579797902 0.106163 -0.01908172 0.9941656 193 192 186
3.61061725533166 2.05341506435375 -0.371365268382325 0.08118957 0.06962273 0.994264 186 186 176
3.60381421618054 2.05555762558368 -0.370576391986976 0.4703942 -0.1092092 0.8756727 195 196 193
3.60548214229926 2.05525771173964 -0.371503158693392 0.3329671 -0.1037871 0.9372092 195 195 189
3.60682165072659 2.05165783792498 -0.371024787612231 0.2264059 0.186329 0.9560449 186 186 179
3.60628324022013 2.05280042591658 -0.371824263896053 0.2216253 0.07556058 0.9722 200 198 193
3.61685732771839 2.0446211842184 -0.370975812363245 0.2945819 0.349921 0.8892563 178 178 169
3.61617071407616 2.0455331230676 -0.371158021568026 0.2895552 0.325548 0.9000979 187 185 179
3.61431524351062 2.04583845004828 -0.369957415726602 0.2213344 0.3655195 0.9041054 182 183 175
3.61798005270627 2.03900344428164 -0.368398079945734 0.3194844 0.1655936 0.9330105 184 185 176
3.61528158038001 2.04041308915908 -0.367785703069573 0.2173293 0.2686082 0.9384123 193 184 184
3.61875922896776 2.04304306162524 -0.371131687820057 0.3608926 0.3394066 0.8686539 184 183 176
3.6188454796446 2.04182486620897 -0.370731791597271 0.373829 0.3365293 0.8642915 171 171 160
3.60784033687477 2.04408097586791 -0.368186937534045 0.1385418 0.1906936 0.9718242 188 171 177
3.60876957356292 2.04280406591223 -0.368795157428166 0.1045902 0.1886389 0.9764611 218 174 203
3.6068768903317 2.04394398034045 -0.368314109653874 0.1247352 0.1769399 0.9762855 198 176 186
3.60667342578466 2.04282818963288 -0.368536074422128 0.1313322 0.1665614 0.9772457 226 195 212
3.6096600498056 2.04495021263476 -0.369408076793859 0.1100762 0.2527617 0.9612465 200 192 193
3.61266053359333 2.0485452354883 -0.370902523207018 0.1520347 0.2808714 0.9476269 197 197 193
3.61946916119408 2.06321902112503 -0.37371147112592 0.3476265 -0.04648001 0.9364803 198 198 192
3.62016664443582 2.06183340845782 -0.373965112337558 0.3325347 0.04229498 0.9421421 184 185 176
3.62055812785006 2.05899103524149 -0.373714892156631 0.2904004 0.1416044 0.9463698 187 187 180
3.6233666295818 2.0593170289035 -0.375289214705007 0.1530215 0.140035 0.9782508 190 184 182
3.62232517173169 2.05880892369626 -0.375272966496495 0.1927735 0.13351 0.972118 188 187 183
3.61866254970106 2.06467385003142 -0.373236335971887 0.3098672 -0.1319422 0.9415804 201 200 195
3.61489125566074 2.06293593760595 -0.372985068980037 0.1146746 0.03977299 0.9926066 183 184 178
3.62109125098335 2.0559422384478 -0.373844532856923 0.2413734 0.2086708 0.9477317 193 176 181
3.61987149486904 2.05602998841603 -0.373347854929561 0.2556046 0.1904421 0.9478387 193 178 182
3.61751795032011 2.05547039539957 -0.372805215975047 0.2220409 0.116678 0.968031 209 177 195
3.62242896855752 2.0677559394337 -0.374133017096495 0.203334 -0.3948796 0.8959494 196 195 189
3.62233705937259 2.06795023885904 -0.374296030185671 0.1863688 -0.396413 0.8989568 193 193 186
3.62531408522396 2.06523094068066 -0.375213505586344 -0.1886165 -0.1934865 0.9628015 214 213 208
3.62168882052031 2.06499198216132 -0.374775505573408 0.2445128 -0.1892135 0.9510056 191 192 185
3.62342641132997 2.06427849888397 -0.375609055917245 0.0721895 -0.1370514 0.9879299 191 191 187
3.62266245760784 2.06534679773796 -0.375550989464026 0.1593675 -0.205758 0.965539 188 188 182
3.62312355893819 2.06605633729285 -0.375381756970055 0.1336884 -0.2316771 0.9635627 196 195 191
3.62572464551531 2.06043645738819 -0.375259397739252 -0.1351032 0.01807111 0.9906667 207 204 200
3.62635454424521 2.06163262359603 -0.375138839768207 -0.1667171 0.001889668 0.986003 211 209 205
3.62155958828183 2.06139411516033 -0.375177006183811 0.2820946 0.05661938 0.9577144 184 184 176
3.62367059263941 2.06231391259827 -0.375707766940149 0.05666279 0.04933034 0.997174 209 207 204
3.62802322517287 2.05356478394208 -0.374862875267331 0.09712116 0.0866446 0.9914939 207 189 197
3.62543684996727 2.05144355457515 -0.373649148773447 0.2728643 0.1784607 0.9453554 187 181 182
3.62623158922274 2.0526059211511 -0.373981019326032 0.1989447 0.1616022 0.9665949 199 181 191
3.62448361675862 2.0534293397306 -0.373734066397074 0.2362597 0.2161855 0.9473358 206 175 195
3.62681272235875 2.05568376168352 -0.375090903939474 0.03806345 0.1143928 0.9927061 225 186 212
3.62619893198064 2.05808241494062 -0.374948398354445 -0.1007114 0.01968354 0.9947209 207 192 198
3.62491056014257 2.05696931095774 -0.374986622379022 0.1400246 0.164116 0.9764523 220 190 208
3.6272989682882 2.05139971166721 -0.374366291358754 0.1874566 0.1156308 0.9754432 185 182 180
3.62199148742032 2.05425456205799 -0.373574503720919 0.2144508 0.2345157 0.9481631 231 185 219
3.61154671610332 2.06098689763581 -0.372998261508678 0.2401964 0.1321917 0.9616814 211 208 205
3.61201855426497 2.05979081532309 -0.372048495521761 0.232138 0.1542759 0.9603702 188 190 185
3.61195750570092 2.06287348510035 -0.373333001928734 0.2142712 0.07800949 0.9736542 186 187 180
3.59902207450328 2.05356401385835 -0.363616729014255 0.814819 -0.2294057 0.5323937 162 166 154
3.59848003597107 2.05721783462192 -0.364158654016676 0.9066773 -0.1837635 0.3796936 173 174 167
3.5987938485432 2.05577073726895 -0.365233935213197 0.8657268 -0.1649998 0.472538 174 178 171
3.59912769741656 2.05785808709018 -0.365958762147398 0.8735949 -0.09267432 0.4777481 191 190 186
3.59955040819561 2.05629482296269 -0.365686891815549 0.8464612 -0.08314332 0.5259188 183 184 179
3.6005261180487 2.05235255724872 -0.367029466504206 0.7346627 -0.1633004 0.6584859 172 175 169
3.59812834377205 2.050745345033 -0.365475520672926 0.7151986 -0.3941819 0.5771582 174 176 163
3.59816228782563 2.04793289183493 -0.367630225601494 0.5148315 -0.08536009 0.8530312 178 178 169
3.59813727240402 2.04678937671219 -0.367945835893227 0.4803156 -0.02885249 0.8766211 184 184 175
3.5986370737576 2.04845907657311 -0.367871989521182 0.529588 -0.1086406 0.8412691 181 182 176
3.60207575960098 2.05188052543578 -0.368849571764199 0.5524784 -0.008802867 0.8334807 175 177 172
3.60054558937824 2.04823228403601 -0.369021168297306 0.3896737 0.009723063 0.9209017 187 185 179
3.60133149716886 2.04639095511865 -0.36862050695224 0.1856182 0.1525761 0.9707041 201 199 195
3.60473495275009 2.04369976579303 -0.367780552257869 0.1353981 0.1668278 0.9766452 184 173 171
3.60322356768351 2.0439118083196 -0.367876489663397 0.1076328 0.1914208 0.9755887 187 182 178
3.5994769579016 2.0449243813758 -0.368240247070528 0.3231415 0.1915645 0.9267592 187 185 177
3.59652578673108 2.04727570417622 -0.366678301195324 0.6470553 -0.1072247 0.7548657 185 187 177
3.60354622122815 2.05078048422286 -0.370532148173877 0.3887127 0.1232594 0.9130769 169 169 164
3.6289107797117 2.03844950606841 -0.373043003293015 0.1770029 0.1101419 0.9780279 209 190 198
3.62982957100584 2.03401111086841 -0.372550264711814 0.01276679 0.177959 0.9839551 211 201 205
3.62933311404016 2.03518878525791 -0.372670656223745 0.1167207 0.2081064 0.9711169 207 196 202
3.63129367675104 2.03714645731715 -0.373107755309508 0.1261786 0.1607903 0.9788899 224 182 210
3.63183131810319 2.03621524945803 -0.373267810504941 0.0958004 0.2108115 0.9728211 219 185 207
3.62967701809361 2.03625345333989 -0.372931547668652 0.1342028 0.1521477 0.9792041 209 185 200
3.63293828347608 2.03417637088586 -0.372492431846776 0.04195745 0.331815 0.9424109 211 206 207
3.62160469395845 2.03863726677993 -0.36925226834556 0.4020208 0.07840398 0.9122676 174 174 166
3.62176729906397 2.03747835975682 -0.369634329578265 0.4029757 0.03673652 0.9144731 177 177 168
3.62310360275577 2.03717145275739 -0.369911166057391 0.420412 -0.009912707 0.9072791 177 177 168
3.6226046706971 2.03917618057327 -0.370541775011775 0.3895405 0.2037915 0.8981799 178 177 169
3.6229382971665 2.03445512116175 -0.371109269688144 0.4104497 -0.1225382 0.9036125 184 182 179
3.62428448473878 2.03526401569198 -0.371689931564893 0.3683606 -0.07650692 0.9265296 186 183 180
3.62351160314779 2.0352186883617 -0.37138532065269 0.4202738 -0.07600259 0.9042088 183 181 177
3.62643119465504 2.0379723669188 -0.372223835037069 0.3459721 0.1026657 0.9326109 181 181 175
3.62792030439419 2.03098990359906 -0.371159310294548 -0.09096511 0.2188123 0.9715176 198 182 190
3.62347519026271 2.03195306965281 -0.371717098950828 0.2624441 -0.1333836 0.955684 226 184 214
3.62465504430605 2.03038440832143 -0.372220199853673 0.1050644 0.02613599 0.9941219 234 186 223
3.62621038510786 2.0296276829989 -0.37242267812344 -0.04336132 0.1387019 0.9893844 228 192 215
3.62930296132778 2.04141179231318 -0.373176973026763 0.1547388 0.1347938 0.9787168 200 188 192
3.63068675902004 2.04474208965562 -0.373781673735858 0.09905134 0.1232695 0.9874175 222 181 209
3.63300971868426 2.03891479754445 -0.373535451387294 0.1675788 0.1558389 0.9734637 226 184 215
3.63478397227144 2.03881912228142 -0.373564721085165 0.1882163 0.2045098 0.9605989 211 178 201
3.63644083341417 2.03346504648433 -0.372134472599186 0.04789804 0.3906615 0.9192874 187 188 181
3.6352396852814 2.02931431071467 -0.3710575817169 0.009813162 0.3257806 0.9453945 207 207 203
3.63188532919865 2.03145701204539 -0.371162799237872 -0.08284283 0.3243498 0.9423026 194 194 191
3.63546598237801 2.03312033053355 -0.372362255649407 0.02813907 0.3611166 0.9320961 204 202 199
3.62090742251502 2.03300543131149 -0.370923904262096 0.3315831 -0.2432523 0.9115267 194 177 185
3.66618936377198 2.01961869688549 -0.327102988958359 -0.932266 0.3604275 -0.03117855 164 169 160
3.65196757631929 2.00818795652905 -0.332874000072479 -0.1716838 0.9749957 -0.141096 179 182 174
3.60922434049279 2.09447497816601 -0.33354115486145 0.6839532 -0.7190896 0.1229565 193 194 189
3.60584402697713 2.08581668825665 -0.3520587682724 0.9644946 -0.2151 -0.1532387 172 174 165
3.6071783663574 1.99697954149761 -0.362006992101669 -0.160276 0.4731627 -0.8662729 178 179 172
3.60032876449258 2.04798085184612 -0.315097659826279 0.1591591 0.5357456 -0.8292436 175 177 170
3.61874260621698 2.00209445448437 -0.33422315120697 0.242935 0.661613 -0.7094017 198 197 194
3.647786653215 2.06858891935864 -0.326558142900467 -0.5973966 -0.7885211 -0.1461228 170 173 168
3.66610041874082 2.02910370321789 -0.315627694129944 -0.5432573 0.4181225 -0.7280419 193 194 188
3.60219683366449 2.0704569289259 -0.346128404140472 0.8888749 -0.4509191 0.08107621 157 161 148
3.63973615186841 2.00556368322888 -0.332451462745667 -0.3114092 0.6869773 -0.6565718 171 173 162
3.59752666073472 2.03389615507641 -0.323978424072266 0.7462445 0.09484497 -0.6588805 167 169 156
3.61198196428449 2.0333475539259 -0.317840456962585 0.06405921 0.1551867 -0.985806 192 190 188
3.66763860600621 2.02362174482861 -0.323756039142609 -0.9181675 0.343372 -0.1976466 172 176 173
3.58718555288942 2.00923318357983 -0.33427506685257 0.5654579 0.4097795 -0.7157779 205 205 201
3.63439880924852 2.05146486254254 -0.308025687932968 0.03409073 0.3072392 -0.9510215 174 176 170
3.62265666442544 2.09145051928082 -0.333096385002136 -0.9134181 -0.3825925 -0.1388901 165 168 152
3.65460955219896 2.06169480772534 -0.327563345432281 -0.6817213 -0.7283067 -0.06946512 161 166 153
3.60526581721933 2.06930059881725 -0.310457140207291 0.948706 -0.1152575 -0.2944021 164 169 159
3.65176742392213 2.00884396524944 -0.335865139961243 -0.360048 0.9327601 0.01800284 173 176 170
3.62336829918058 1.99284309835949 -0.3470179438591 0.2483352 0.9117529 -0.3271641 187 188 185
3.63551076369912 1.996267862039 -0.349508732557297 -0.7367169 0.6644249 0.1256494 175 179 174
3.59087722616822 2.00200552435436 -0.341880768537521 0.2306456 0.9060972 -0.3546695 198 199 195
3.6143837781492 2.09251803846874 -0.319975405931473 -0.2231255 -0.5071015 -0.8325041 195 197 192
3.63435432928235 2.08297748060742 -0.341702848672867 -0.4879655 -0.7190776 -0.49479 154 156 144
3.63829063492448 2.0752050349287 -0.32735875248909 -0.478457 -0.8707827 -0.1132095 153 157 144
3.64053676145704 2.00391811819592 -0.334252804517746 -0.3370689 0.897549 -0.2842363 191 193 187
3.66793512421281 2.04643887968578 -0.340479701757431 -0.7765769 -0.5287416 -0.3425792 158 163 153
3.64840044694574 2.00885517092266 -0.352141797542572 -0.4413067 0.7799101 -0.4438339 171 174 165
3.63622241335542 2.01245779486218 -0.329404711723328 -0.4115376 0.4474314 -0.7940038 169 170 159
3.60237475352914 2.00378460379162 -0.352221876382828 0.3036903 0.7496035 0.5881044 175 176 165
3.6025971384588 2.07663936110058 -0.362496256828308 0.8889982 -0.3948117 0.2319611 173 174 164
3.66637099402578 2.0236811110548 -0.321139246225357 -0.7142527 0.5300379 -0.4570591 196 198 193
3.59821606295736 2.06093866320172 -0.349308580160141 0.8337812 -0.5514646 -0.02637507 161 163 151
3.64651162045629 2.06787723990002 -0.32415634393692 -0.5691339 -0.7969719 -0.202293 175 177 171
3.67018570619256 2.03491908999005 -0.337517499923706 -0.9676341 0.2523525 0.001530278 171 174 169
3.64734186845453 2.06596464605847 -0.319263756275177 -0.6777796 -0.6766089 -0.2877763 176 177 170
3.67207158225209 2.02342159243145 -0.362496256828308 -0.8835408 -0.01556847 0.4680954 173 176 164
3.61071435230405 2.0539557406477 -0.306698769330978 0.3428153 0.2888954 -0.8938776 171 174 164
3.6293283464256 2.04276949854412 -0.315527617931366 0.03547057 0.600557 -0.7987947 172 174 166
3.64238703864248 2.00740510912457 -0.332180142402649 -0.1853694 0.4815498 -0.8565909 173 175 167
3.60173723714978 2.04190213175335 -0.317084342241287 0.4163097 0.3286946 -0.8477299 165 167 158
3.61629632728727 2.05729145498791 -0.303607553243637 0.3224899 0.2804722 -0.9040661 175 176 168
3.64912099259526 2.00956673117199 -0.330516666173935 0.1110027 0.7681168 -0.6306147 169 170 156
3.6287946017328 2.07899672480145 -0.32646918296814 -0.6718329 -0.7012635 0.2384746 130 137 122
3.62456921356351 2.08704716654339 -0.336832523345947 -0.8773336 -0.3797323 -0.2934095 150 152 138
3.66772756593854 2.02731341810742 -0.333452194929123 -0.9547695 0.2959849 -0.02842828 169 173 170
3.59512486177118 2.0570691296629 -0.347729593515396 0.8456723 -0.4578864 -0.2741868 164 166 155
3.60357565301091 2.05164284201183 -0.310990899801254 0.3460118 0.4974753 -0.7954836 179 181 175
3.65804622190625 2.04136843176403 -0.359308689832687 -0.8554943 -0.321263 0.4061029 151 155 142
3.60270833092363 2.07906336279431 -0.355557709932327 0.9337103 -0.3469135 -0.08852214 173 174 166
3.60797896104486 2.09161359758892 -0.319545447826385 0.5755218 -0.7350893 -0.3583551 174 177 169
3.65519223230512 2.04210228415051 -0.365342855453491 -0.9158921 -0.2438956 0.3188364 151 154 141
3.66479942815931 2.01356977911511 -0.346951246261597 -0.5336255 0.8445871 -0.04377697 176 178 169
3.62172262983949 2.09638757200756 -0.357470244169235 -0.3754188 -0.9182696 0.125864 167 170 155
3.6202993305269 2.0831887194685 -0.313904166221619 -0.3595306 -0.8301529 -0.4261266 156 161 152
3.60531029718549 2.09169513674297 -0.331272780895233 0.748251 -0.6259768 0.2197123 179 182 177
3.65215659754903 2.0116350123457 -0.327525526285172 0.117309 0.7000633 -0.7043792 185 186 178
3.6577496887985 2.02050835581341 -0.320820480585098 -0.01727971 0.6355331 -0.7718803 182 181 174
3.64912099259526 2.0706349083952 -0.352444261312485 -0.9168807 -0.3922312 0.07405759 171 173 164
3.60626656430394 2.01130885572949 -0.327358722686768 0.3508017 0.4986027 -0.7926749 179 179 175
3.65053983646066 2.01136369200268 -0.327719032764435 0.177184 0.6858409 -0.7058527 171 172 162
3.58845317977102 2.0032805869154 -0.339441895484924 0.4198659 0.8192841 -0.3904948 194 194 189
