ply
format ascii 1.0
comment File exported by Rhinoceros Version 7.0
element vertex 495
property float x
property float y
property float z
property float nx
property float ny
property float nz
property uchar red
property uchar green
property uchar blue
end_header
3.765830910379 2.13557261915722 -0.363267213106155 -0.9401035 0.3099911 -0.1418132 168 160 156
3.76342911141545 2.13201434107342 -0.35956072807312 -0.8053796 0.4035401 -0.4341878 162 156 153
3.76422972100408 2.13192541094341 -0.361918032169342 -0.9087169 0.3657015 -0.2012362 163 160 153
3.76547510045202 2.13686246367016 -0.364586710929871 -0.9526725 0.2655441 -0.1479912 161 161 149
3.76633498685987 2.13594324083843 -0.361517757177353 -0.9453931 0.3152004 -0.08294931 165 156 152
3.76863301413686 2.14424581022778 -0.365565240383148 -0.8092945 0.2307972 -0.540162 153 138 137
3.7709458829704 2.1450464198164 -0.367299854755402 -0.8018942 0.1942386 -0.5650107 152 137 130
3.7665425600353 2.14335615129986 -0.359115928411484 -0.9802423 -0.05607442 -0.1896856 179 141 167
3.76614225524099 2.14669198484936 -0.361268669366837 -0.8880074 0.01373374 -0.4596241 200 146 187
3.76634240763814 2.14506859274426 -0.359783113002777 -0.9523115 -0.1158604 -0.2822751 197 144 182
3.76812151687772 2.14340061636486 -0.364030718803406 -0.8446446 0.2062933 -0.4939823 166 137 145
3.76556406038434 2.14891595335522 -0.360761612653732 -0.8848871 -0.1304817 -0.447157 203 151 190
3.76543060558469 2.1484267184309 -0.360272377729416 -0.8848871 -0.1304817 -0.447157 200 146 187
3.76458553093106 2.15132886858502 -0.359549582004547 -0.8682972 -0.1977804 -0.4549097 198 153 186
3.76925570386083 2.14678103418865 -0.363875061273575 -0.8271673 0.1036147 -0.5523208 194 141 179
3.82194716351659 2.12716621847668 -0.36596554517746 0.7779225 -0.2812473 -0.5619044 163 166 157
3.82116136568219 2.17553586454907 -0.324134111404419 0.8749471 -0.03787287 0.4827351 177 181 174
3.77478579300077 2.14792258234539 -0.314252585172653 0.07978073 -0.6833709 0.7256991 179 184 177
3.83085755127103 2.17951673956432 -0.343637645244598 0.4558885 0.8800927 -0.1326746 184 186 182
3.78453383463056 2.17782659025707 -0.327458798885345 0.07003856 0.9039633 0.4218353 181 183 174
3.76465225833089 2.16570634336987 -0.322866499423981 -0.2179282 0.9152312 0.3389089 177 180 171
3.81397823112638 2.13503879995861 -0.321443200111389 0.1955071 -0.04470675 0.9796827 168 173 164
3.81097594516904 2.19170362444439 -0.346306324005127 0.7978602 0.5072525 -0.3257514 183 185 177
3.80216932910115 2.19746345968762 -0.353066921234131 0.1725576 0.85131 -0.4954748 172 173 167
3.76956704872281 2.15999097319164 -0.366677165031433 -0.6744233 -0.03687273 -0.7374237 158 160 145
3.76374045627744 2.15345270128765 -0.359812766313553 -0.9580278 -0.1453612 -0.2470887 168 150 156
3.76356253641278 2.15725559683361 -0.359627425670624 -0.9502986 0.008386537 -0.311227 179 174 170
3.76636464017064 2.16025776358166 -0.364097446203232 -0.8009812 0.001070348 -0.5986885 164 163 153
3.76276192682416 2.15929407568493 -0.359427273273468 -0.9552469 0.0299858 -0.2942858 162 162 153
3.76734316962392 2.16399390192547 -0.365031480789185 -0.7775089 0.1239449 -0.6165368 152 152 148
3.82654318826825 2.15523178072491 -0.318151831626892 0.586348 -0.04676801 0.8087081 176 178 172
3.76587540524633 2.16577298136273 -0.363474756479263 -0.7729505 0.1164692 -0.6236846 152 153 146
3.76458553093106 2.16408283205547 -0.362985521554947 -0.8483997 0.04968007 -0.5270197 148 151 146
3.76449657099874 2.16590649576702 -0.363252371549606 -0.8266585 0.123513 -0.548981 147 150 145
3.76618675010831 2.16621787043133 -0.362273871898651 -0.8231462 0.1047181 -0.5580901 159 151 148
3.76587540524633 2.16706294508495 -0.36276313662529 -0.7970114 0.1619129 -0.5818566 152 153 144
3.76792136448056 2.16726297827282 -0.363319098949432 -0.740669 0.2163831 -0.6360722 161 150 152
3.76454106586606 2.17035431356945 -0.360895067453384 -0.7357375 0.2677878 -0.6220772 148 154 142
3.76636464017064 2.16955370398083 -0.361562222242355 -0.7080678 0.2983643 -0.6400146 152 155 140
3.76556406038434 2.17168862314739 -0.360450267791748 -0.6713002 0.3410201 -0.6580739 155 159 149
3.76776570695073 2.17133278341808 -0.36238506436348 -0.6548288 0.3686916 -0.6597467 156 157 150
3.7834886373821 2.10839659662762 -0.32095393538475 -0.5479499 -0.231863 0.8037354 160 165 156
3.77187991755635 2.17573613615551 -0.362140446901321 -0.4523207 0.5956334 -0.6637973 146 150 134
3.76952258365781 2.17564708681622 -0.361562222242355 -0.5001898 0.5262179 -0.6876808 146 150 140
3.76107177751691 2.10915274115124 -0.347952008247375 -0.9341327 -0.3136922 -0.1702742 180 182 175
3.76102731245191 2.1109762856535 -0.349464237689972 -0.9183111 -0.3412559 -0.200622 177 180 173
3.76436314600141 2.10897476168194 -0.357737123966217 -0.9304517 -0.1237637 -0.34488 165 167 158
3.76364038007886 2.10896367521801 -0.355313092470169 -0.9395995 -0.1399605 -0.312352 168 171 163
3.76271746175916 2.11013121099987 -0.354979485273361 -0.93161 -0.1922458 -0.3084548 174 175 167
3.76307330148847 2.11079842539349 -0.35546875 -0.9186987 -0.1937891 -0.3441488 170 172 162
3.76378492134244 2.11257750483074 -0.35764816403389 -0.9006228 -0.1829101 -0.3942365 170 173 167
3.76120520251424 2.11693639250317 -0.352666646242142 -0.8608031 -0.3418079 -0.3770748 174 177 169
3.75907028334768 2.1215176055006 -0.355913519859314 -0.7784743 -0.2403457 -0.5798377 176 177 172
3.75117543953092 2.12385267706432 -0.349286317825317 -0.9212964 -0.1827931 -0.3432194 177 178 172
3.75179815905721 2.12256283255139 -0.347774088382721 -0.9087001 -0.390463 -0.1476575 177 179 172
3.75402945893438 2.12944943399944 -0.351006150245667 -0.8520496 0.2652141 -0.4513015 165 166 157
3.75115320699842 2.12583190889874 -0.348085433244705 -0.9714363 0.1199536 -0.2047501 176 179 173
3.76142761724622 2.1215176055006 -0.358938038349152 -0.8630153 -0.1882042 -0.468811 160 163 155
3.76122746484906 2.10933060141125 -0.343103885650635 -0.9322976 -0.2349015 0.2750318 179 181 175
3.75990051644475 2.1110948988966 -0.343296647071838 -0.8053798 -0.4027093 0.4349582 181 184 177
3.75914145129354 2.11276430578747 -0.343406349420547 -0.7066573 -0.4910652 0.509402 184 185 179
3.75760251897008 2.1146234938673 -0.345105409622192 -0.7544202 -0.5809644 0.3055004 178 179 174
3.75840309875638 2.114401049333 -0.34314838051796 -0.6956633 -0.422211 0.5811974 181 183 174
3.75651279705198 2.11664719076672 -0.343971222639084 -0.67831 -0.6614943 0.3198764 184 186 180
3.75697979944379 2.11589116545239 -0.342903763055801 -0.6388305 -0.5898623 0.4939211 176 178 170
3.75782490389974 2.11577994318524 -0.342481225728989 -0.6452249 -0.5605808 0.5190703 179 182 175
3.75613475459249 2.11684734316387 -0.342436730861664 -0.6078218 -0.6616584 0.4390454 173 177 167
3.75973743813665 2.11404532881298 -0.341591656208038 -0.6079957 -0.3800997 0.6970405 177 180 176
3.76002655046613 2.11484593840161 -0.341013431549072 -0.596782 -0.4079577 0.6909571 167 171 165
3.75706878917844 2.11613578291454 -0.341413736343384 -0.6008931 -0.6370139 0.4828466 177 180 172
3.7580472888294 2.11649150343456 -0.34096896648407 -0.5811935 -0.5564971 0.5937382 172 176 170
3.75711325424344 2.1177368828825 -0.340524196624756 -0.5251622 -0.618905 0.5840901 182 183 177
3.76009324806363 2.11569089384594 -0.3403240442276 -0.5688666 -0.4424873 0.6932502 169 174 169
3.76205030697019 2.10715121717968 -0.344393759965897 -0.9674231 -0.2444953 0.0656857 176 179 173
3.76162776964338 2.10873026342907 -0.342948228120804 -0.9702445 -0.1512974 0.1890363 178 180 173
3.76215407865674 2.10933060141125 -0.341072738170624 -0.9157881 -0.09867105 0.3893536 171 175 168
3.76289538162381 2.10935730429211 -0.33948341012001 -0.9285186 0.06339223 0.3658342 173 176 169
3.76347357648046 2.10959751101055 -0.339234322309494 -0.9406338 0.05709861 0.334586 175 177 171
3.7623764635864 2.1110948988966 -0.340020090341568 -0.8020347 -0.1351307 0.5817903 174 177 169
3.76297322528989 2.11341149302044 -0.339390009641647 -0.8083268 -0.2063392 0.5513908 172 175 168
3.76358476894529 2.10888595076122 -0.338478207588196 -0.9488359 0.08258945 0.3047775 174 176 168
3.76358476894529 2.11266643496075 -0.338989704847336 -0.8428751 -0.1595086 0.5139247 172 175 168
3.7639628412071 2.11213273497143 -0.338834017515182 -0.8887834 -0.1311274 0.4391692 170 174 166
3.76165000217588 2.11304444761791 -0.340657621622086 -0.6970725 -0.2772779 0.6612162 171 174 168
3.76262850182683 2.11504597158947 -0.339501202106476 -0.7513581 -0.3368032 0.5674722 173 177 168
3.75208724158437 2.12267393560925 -0.345639139413834 -0.907216 -0.4189011 -0.0384836 182 183 178
3.75364396589429 2.11938256712475 -0.343637645244598 -0.7929121 -0.6015793 0.09691577 189 190 183
3.75453353541524 2.11827070208111 -0.34403795003891 -0.7687483 -0.6238474 0.1408562 185 188 183
3.75207242983014 2.12347466440716 -0.343919336795807 -0.921801 -0.3876599 -0.001649292 181 183 174
3.7522428991142 2.12329668493786 -0.341814041137695 -0.8751646 -0.4816402 0.04593045 182 182 178
3.75076774376065 2.12517959566631 -0.346232175827026 -0.9870402 -0.1178349 -0.1089339 178 180 176
3.75297681110532 2.1281892725996 -0.347462743520737 -0.9590306 0.2246321 -0.1726287 171 174 165
3.75417772548825 2.11956054659405 -0.341324806213379 -0.724874 -0.6469406 0.2366971 182 186 180
3.75358838456304 2.12083930464306 -0.34098008275032 -0.7553892 -0.626738 0.1912763 184 186 180
3.7521228255573 2.12279850931683 -0.337553083896637 -0.7278002 -0.6568342 0.1971693 183 185 180
3.75101978200109 2.12360805960217 -0.336965948343277 -0.8009258 -0.5704628 0.1819067 190 192 187
3.75632376092107 2.11919362040081 -0.339601278305054 -0.4679228 -0.709283 0.5272247 177 179 176
3.75093082206876 2.12520927877941 -0.341458231210709 -0.895489 -0.4450643 -0.004146837 177 180 175
3.75150904672773 2.1246309945158 -0.341502696275711 -0.8971816 -0.441651 0.003086832 180 182 177
3.75101978200109 2.1248089739851 -0.339612394571304 -0.8895723 -0.4558236 0.02976576 179 181 175
3.7514645518604 2.12440866919079 -0.33674356341362 -0.842847 -0.4989831 0.2015558 185 187 182
3.75806955116422 2.13163632841625 -0.355490982532501 -0.6118664 0.5258326 -0.5908635 186 162 176
3.75880340355069 2.13330418558636 -0.354734867811203 -0.6294256 0.4356525 -0.6434519 194 164 181
3.75920370834501 2.13428265543499 -0.353912025690079 -0.6278955 0.4176998 -0.6567146 193 166 179
3.75506726520688 2.13014621229687 -0.352755606174469 -0.7969955 0.2836844 -0.533218 182 167 176
3.75480041521222 2.13090235682049 -0.350376039743423 -0.8443647 0.2909493 -0.4498853 179 166 171
3.75431115048558 2.13272602053204 -0.350843042135239 -0.8444495 0.2605505 -0.4679941 204 175 195
3.75413323062093 2.13191050978222 -0.348144739866257 -0.8627927 0.2635761 -0.4314121 202 171 192
3.75422219055326 2.13250357599774 -0.349864542484283 -0.8602023 0.2536834 -0.4423761 214 168 203
3.75431115048558 2.13329154940167 -0.347138673067093 -0.8775569 0.2485924 -0.4099949 214 171 203
3.75373295562894 2.1345495650343 -0.347218096256256 -0.908039 0.2050493 -0.365267 217 166 204
3.75542310493619 2.13446063490429 -0.351332306861877 -0.8091274 0.2910457 -0.5104951 201 166 192
3.75591233986051 2.13752955885449 -0.350042462348938 -0.8410302 0.2727815 -0.4671814 176 168 167
3.75600129979284 2.14042062254467 -0.34906393289566 -0.8329796 0.2426621 -0.4972526 164 157 157
3.75586787479551 2.13979799242535 -0.347952008247375 -0.8377107 0.1972246 -0.5092575 165 158 160
3.76285088675649 2.13370449038067 -0.356981009244919 -0.757677 0.4940577 -0.4264182 172 154 154
3.76607552784116 2.13548368902722 -0.35789281129837 -0.8958046 0.3552733 -0.2670487 167 149 149
3.76229492443235 2.13541693182507 -0.355046212673187 -0.6669775 0.4737184 -0.575093 175 154 161
3.76605329530866 2.1381523081831 -0.355780094861984 -0.9031853 0.2642043 -0.3383082 171 148 151
3.76685390489728 2.13833016844311 -0.358626693487167 -0.9673882 0.2197149 -0.1260376 156 154 145
3.75938162820966 2.14362306089916 -0.350620657205582 -0.7495689 0.1591147 -0.6425177 178 163 168
3.7580472888294 2.14260012598553 -0.348574697971344 -0.826858 0.2100153 -0.5217272 186 163 174
3.75689086931379 2.14638072939434 -0.348129898309708 -0.8542718 0.1342124 -0.5022019 179 159 170
3.75813624876172 2.1481153437666 -0.348974972963333 -0.8163404 0.1195915 -0.5650542 176 163 164
3.75773594396741 2.1515845725111 -0.348307818174362 -0.872513 0.1013902 -0.4779552 177 175 169
3.76485241072805 2.14894551725903 -0.357188552618027 -0.9418653 -0.2193051 -0.2545487 185 143 167
3.76507476585538 2.14789289923229 -0.357425779104233 -0.9482865 -0.2051799 -0.2421858 181 145 164
3.76565299051435 2.14669198484936 -0.356402784585953 -0.9101557 -0.155177 -0.3841052 171 142 152
3.75374776738317 2.13744062872448 -0.345075756311417 -0.9258166 0.1286922 -0.3553899 183 163 176
3.75386635082395 2.13850814791241 -0.345394521951675 -0.8772387 0.1663224 -0.4503212 159 151 153
3.75386638062627 2.13681799860516 -0.344527184963226 -0.9281595 0.09868583 -0.3588607 196 169 189
3.75272104757459 2.13739616365948 -0.341903001070023 -0.9262274 0.06819554 -0.3707454 199 164 190
3.75366622822911 2.13873047323742 -0.344327032566071 -0.8785648 0.1605026 -0.4498476 176 147 162
3.75155351179273 2.13441616983929 -0.338878512382507 -0.956783 0.09792759 -0.2738183 165 169 162
3.75101978200109 2.13423819036999 -0.336832523345947 -0.9941859 0.09883183 -0.04274073 176 179 173
3.75202051418454 2.13861937017956 -0.341413736343384 -0.9271989 0.07695414 -0.366579 196 164 188
3.75075290220411 2.13886398764172 -0.338055670261383 -0.9745113 0.09531109 -0.2030852 184 176 179
3.75480041521222 2.14348966570416 -0.344838529825211 -0.8031961 0.2416682 -0.5444928 206 163 193
3.75424442308576 2.14357859583416 -0.343926757574081 -0.8223302 0.221695 -0.5240461 205 163 192
3.75353280323178 2.14213306398907 -0.342258840799332 -0.8703497 0.1411821 -0.4717616 199 165 189
3.75440011041791 2.1448239752821 -0.343504190444946 -0.8059626 0.249727 -0.5367129 204 162 193
3.75377742069394 2.14451260061779 -0.342080920934677 -0.8252342 0.2381415 -0.51213 206 165 194
3.75564548986585 2.14424581022778 -0.345283329486847 -0.8257003 0.2160107 -0.5211126 204 163 192
3.75675744431646 2.15056163759747 -0.346706598997116 -0.8841544 0.1205925 -0.4513628 181 176 174
3.75689086931379 2.15225178690472 -0.344971984624863 -0.8795472 0.06244535 -0.4716961 173 172 165
3.75651279705198 2.14893812628307 -0.343971222639084 -0.8756288 0.1703181 -0.4519579 178 168 170
3.75782490389974 2.14918274374523 -0.344705104827881 -0.8830004 0.1293205 -0.4512055 177 168 168
3.75635713952214 2.15225178690472 -0.343815565109253 -0.87485 0.05326919 -0.481456 173 170 162
3.75177589672239 2.14442367048779 -0.339189857244492 -0.9361106 0.1826275 -0.300573 189 167 182
3.75182039158971 2.14651412458935 -0.340034931898117 -0.8871846 0.1654389 -0.4307359 194 163 184
3.75297681110532 2.14535767527142 -0.341013461351395 -0.8229365 0.2053753 -0.5297136 202 169 193
3.75117543953092 2.14566904993572 -0.337455213069916 -0.9774351 0.06453066 -0.2011379 193 173 183
3.75133112686307 2.14646965952435 -0.337277293205261 -0.9770194 0.04225064 -0.2089207 199 174 188
3.75431115048558 2.14773721190014 -0.341702848672867 -0.815943 0.197113 -0.5434919 189 165 180
3.75379965322644 2.14813751669445 -0.340368509292603 -0.8010095 0.2098674 -0.5606598 190 167 181
3.75190935152204 2.15167350264111 -0.338122397661209 -0.9421016 0.07403226 -0.3270532 192 170 182
3.75555652993352 2.15016133280316 -0.341591656208038 -0.841768 0.1422965 -0.5207479 180 167 172
3.74928513782651 2.12907881231823 -0.336209833621979 -0.9790852 -0.1284088 0.1578081 184 185 184
3.76022670286329 2.1178259322218 -0.328848779201508 -0.8980438 -0.3158232 0.3062238 186 188 185
3.76107177751691 2.1146234938673 -0.327966600656509 -0.9016274 -0.3454999 0.2601881 178 181 177
3.76053804772527 2.1179593274168 -0.326958447694778 -0.9040762 -0.2959016 0.3083641 177 180 175
3.7608345510307 2.1175738045744 -0.325238645076752 -0.8824475 -0.2990173 0.3631459 189 190 186
3.76458553093106 2.11150998564282 -0.335542678833008 -0.9822778 -0.01248191 0.187015 157 163 154
3.76427418606908 2.1079518267683 -0.33136174082756 -0.8515742 -0.4951082 0.1723054 167 172 161
3.76378492134244 2.10986430140057 -0.333274304866791 -0.9771717 -0.2101235 -0.03136395 163 167 162
3.76262850182683 2.10999781580486 -0.331406235694885 -0.9067163 -0.4170225 0.06291097 168 172 165
3.76271746175916 2.1109762856535 -0.331895470619202 -0.9541807 -0.2963476 -0.04144064 166 170 164
3.76414076107175 2.11500162573376 -0.335386991500854 -0.9497759 -0.3094053 0.04684171 161 165 158
3.76313999908597 2.1093973586134 -0.328982174396515 -0.7292979 -0.5967513 0.3346826 179 181 178
3.76480791586072 2.10706228704968 -0.328959941864014 -0.5476554 -0.698666 0.4603687 181 182 178
3.76422972100408 2.107729382234 -0.3285151720047 -0.6169344 -0.6566706 0.4337922 185 186 185
3.76252684610517 2.11154813261547 -0.327530294656754 -0.7196781 -0.5578219 0.4133983 181 183 179
3.76388872283132 2.10878200026074 -0.327136337757111 -0.538143 -0.6708602 0.5102438 181 185 180
3.76433772462041 2.11159259768047 -0.32531276345253 -0.599876 -0.5627746 0.5687122 179 181 177
3.7665203275028 2.1107983061842 -0.325290501117706 -0.411922 -0.7202263 0.5582063 170 173 166
3.76976720111997 2.107729382234 -0.326825022697449 -0.5431669 -0.5664308 0.6197789 164 168 163
3.76680943983228 2.10844106169262 -0.326869487762451 -0.4501885 -0.6566402 0.6051066 173 177 172
3.76878870146901 2.10919720621624 -0.325646340847015 -0.4802387 -0.6093339 0.6309382 163 165 163
3.7698561610523 2.10873026342907 -0.326913952827454 -0.4905964 -0.5438445 0.6808438 155 159 156
3.76162776964338 2.11293334456005 -0.328870981931686 -0.8886635 -0.4256797 0.1705106 175 178 172
3.76111627238424 2.11569101305523 -0.325979918241501 -0.8588336 -0.3250013 0.3959534 189 192 190
3.7522948147598 2.12360805960217 -0.333630114793777 -0.6025093 -0.6080698 0.5169465 183 185 179
3.75493384020955 2.12187332602062 -0.335498183965683 -0.4270656 -0.8118948 0.3980475 173 175 172
3.75235412138135 2.12322992773571 -0.335475981235504 -0.6695886 -0.6340209 0.3868703 183 184 178
3.75426665561826 2.12222916574993 -0.334386229515076 -0.4439101 -0.7786766 0.4434034 177 179 175
3.75462249534757 2.12325221987286 -0.332362473011017 -0.5879536 -0.633594 0.5028609 181 183 178
3.75969297307164 2.12085039110699 -0.335942983627319 -0.4443135 -0.8350269 0.3245238 172 175 170
3.75677967684896 2.12158436270275 -0.335475951433182 -0.4339901 -0.8441434 0.314761 167 171 167
3.75813624876172 2.12156207056561 -0.33456414937973 -0.499052 -0.8402286 0.2120451 170 173 169
3.75889236348302 2.12111730070629 -0.335498183965683 -0.423301 -0.842678 0.3327313 167 170 167
3.75955954807431 2.11956054659405 -0.331183850765228 -0.8526685 -0.5186633 0.06280863 169 172 167
3.75924820321233 2.11973840685406 -0.330828011035919 -0.8530997 -0.514936 0.08403458 170 173 166
3.75653502958448 2.12329668493786 -0.331561923027039 -0.6899313 -0.5942666 0.4133304 173 175 168
3.7506417395416 2.12469763250866 -0.334386229515076 -0.7929713 -0.4777353 0.3781076 182 183 179
3.74984112995298 2.12965697737255 -0.335987448692322 -0.9854895 -0.08766779 0.1453434 188 188 186
3.75053051727445 2.12881202192822 -0.333852529525757 -0.884269 -0.2701443 0.3809074 181 183 178
3.75302127617032 2.12600976915875 -0.332384765148163 -0.6671878 -0.4681996 0.5793527 184 186 182
3.75515622513921 2.12529820890942 -0.331094890832901 -0.669388 -0.4773178 0.5692868 182 184 180
3.7514200867954 2.1278778979353 -0.332295775413513 -0.7609375 -0.351525 0.5453478 184 185 180
3.75097531693608 2.12970156164684 -0.331806540489197 -0.8417146 -0.3046291 0.4457775 183 184 181
3.75291011350782 2.12745542021313 -0.331183850765228 -0.655424 -0.4191341 0.6282881 181 184 179
3.75960401313932 2.11882669420757 -0.329004436731339 -0.9027702 -0.3436814 0.2586292 181 182 181
3.75787827985913 2.12372369261303 -0.327474385499954 -0.832094 -0.3786055 0.4053117 193 195 192
3.76000431793363 2.11947161646404 -0.32749217748642 -0.8961008 -0.3170351 0.3106319 178 180 178
3.75889236348302 2.12116164656201 -0.326002180576324 -0.8782207 -0.326075 0.349862 188 188 187
3.76080492752225 2.12000531645336 -0.325001418590546 -0.8686169 -0.2592442 0.4222525 179 183 179
3.75279889124067 2.12962359877148 -0.329415857791901 -0.7262989 -0.3869188 0.5681406 185 186 183
3.75391084569127 2.12854511232891 -0.32953816652298 -0.6870911 -0.4467734 0.5729741 188 189 187
3.75468180196912 2.12904912920513 -0.32817417383194 -0.7351465 -0.4226901 0.5299931 187 191 188
3.75513399260671 2.1296348044447 -0.325601875782013 -0.7874258 -0.3889872 0.4781732 194 197 196
3.75635713952214 2.12427515478649 -0.330516666173935 -0.7287794 -0.491241 0.4770355 179 180 173
3.75711325424344 2.12396389933148 -0.328292787075043 -0.7997651 -0.4049041 0.4432026 187 189 185
3.75724667924077 2.1245865294508 -0.328025907278061 -0.7996018 -0.4062306 0.4422823 189 192 189
3.75613475459249 2.12716621847668 -0.328226059675217 -0.7351218 -0.5093469 0.4473942 184 185 182
3.75813624876172 2.12492007704296 -0.327247560024261 -0.8216606 -0.3970341 0.4089471 185 189 187
3.75764698403508 2.12689942808666 -0.325594455003738 -0.7429321 -0.4716685 0.4749535 177 181 177
3.75860325115354 2.1250314185194 -0.325512886047363 -0.808157 -0.3592267 0.4667317 184 186 185
3.75560099499852 2.12832266779461 -0.327714562416077 -0.7574033 -0.4461945 0.4767082 184 186 182
3.75546757000119 2.12872297258892 -0.326602607965469 -0.7911574 -0.4397721 0.4250536 191 193 193
3.76716524975927 2.12489790411511 -0.328559637069702 0.4001229 -0.8945873 0.1990357 168 172 159
3.77102000134618 2.1074921557478 -0.32394877076149 -0.4014123 -0.4751304 0.7830193 169 176 165
3.76777682321698 2.11129874678173 -0.323733806610107 -0.4072594 -0.7550243 0.5138853 170 175 169
3.76898885386617 2.11026460619488 -0.321265280246735 -0.3733357 -0.771615 0.5150056 180 183 178
3.76834390180738 2.11135429831066 -0.32135421037674 -0.3878158 -0.7949377 0.4665543 198 199 198
3.76888505237729 2.11180657835522 -0.3200643658638 -0.3234656 -0.7838946 0.5299804 184 188 184
3.76956704872281 2.11208826990643 -0.319619596004486 -0.1174694 -0.8302151 0.5449255 178 181 177
3.77134615796239 2.1111542651228 -0.321354240179062 -0.01670533 -0.7707518 0.6369165 174 176 173
3.7642000676933 2.11466795893231 -0.322021394968033 -0.6836512 -0.5239567 0.5080261 183 184 181
3.76516375559003 2.11288887949505 -0.322332739830017 -0.6012993 -0.5912519 0.5374573 171 173 169
3.76209477203519 2.11618024797955 -0.323844999074936 -0.817326 -0.3358243 0.4681882 196 198 198
3.76778793948323 2.11293334456005 -0.320420205593109 -0.4811523 -0.730192 0.4850898 193 196 193
3.76687613742978 2.11395627947369 -0.316839754581451 -0.5564173 -0.4823855 0.6765382 186 187 182
3.7664891840759 2.11565536947765 -0.316977620124817 -0.6344298 -0.3223616 0.7025538 176 179 172
3.76547510045202 2.11635810823956 -0.319174826145172 -0.7201391 -0.2757935 0.6366613 186 186 186
3.76627568023832 2.1177665659956 -0.317677408456802 -0.6912227 -0.1478702 0.7073511 187 189 183
3.76716524975927 2.11342257948437 -0.31904137134552 -0.5840824 -0.6037763 0.542496 179 183 178
3.77265826481015 2.11411196680584 -0.316817462444305 0.01386269 -0.6791666 0.7338532 194 193 188
3.76761001961858 2.11675841303387 -0.316684067249298 -0.6101403 -0.1758179 0.7725393 183 185 175
3.76835504787595 2.1172143885664 -0.315950155258179 -0.5128902 -0.1608139 0.8432571 186 189 181
3.76872197406919 2.11577994318524 -0.316817492246628 -0.4959608 -0.3743705 0.7834983 165 165 155
3.76965603845746 2.11515719385662 -0.315794497728348 -0.3210939 -0.4290303 0.8442937 183 184 180
3.77023420351178 2.11400074453869 -0.316194772720337 -0.1097698 -0.6161923 0.7799088 186 186 183
3.76716524975927 2.11560196371594 -0.316372722387314 -0.5755053 -0.3194693 0.7528167 158 167 153
3.77139065282972 2.11809272261181 -0.314371198415756 -0.2391464 -0.216366 0.94657 202 202 199
3.76018223779828 2.12418622465649 -0.324111849069595 -0.7648536 -0.2535596 0.5922047 174 181 178
3.75898132341535 2.12556499929943 -0.324556648731232 -0.7704906 -0.3121182 0.5558115 182 185 182
3.75835863369138 2.12709958048382 -0.323155581951141 -0.6879706 -0.3959836 0.6081886 196 197 197
3.75622371452481 2.12843389006176 -0.32442319393158 -0.7312527 -0.4765118 0.4880634 186 190 185
3.76047132032544 2.12729973288098 -0.321843475103378 -0.5298233 -0.3145818 0.7876075 199 200 201
3.76217482107312 2.12131292315045 -0.32161220908165 -0.7310281 -0.08362168 0.6772041 192 193 192
3.76450992243917 2.1192758748106 -0.319294899702072 -0.7051414 -0.05795711 0.7066941 190 192 188
3.76210746782453 2.12334746809521 -0.321392357349396 -0.6612759 -0.1575114 0.7334197 204 204 205
3.76414076107175 2.12382144423046 -0.320091068744659 -0.5820264 0.02153385 0.8128847 198 200 200
3.76445210593374 2.12182886095562 -0.319486171007156 -0.6392378 0.03533866 0.7681968 194 195 193
3.76241723316343 2.1269605824522 -0.321365356445313 -0.4887615 -0.1716622 0.8553621 204 205 206
3.76597917693288 2.12489790411511 -0.319263756275177 -0.5317165 0.09733144 0.841311 195 197 198
3.76209477203519 2.12923449965038 -0.320931673049927 -0.3681059 -0.2996824 0.8801639 206 209 209
3.76374045627744 2.12758881540814 -0.320131093263626 -0.4516267 -0.1321961 0.8823591 202 202 202
3.76422972100408 2.12900466414013 -0.319953173398972 -0.2933453 -0.1527234 0.9437288 204 206 207
3.77201334255368 2.12916774244824 -0.320864975452423 0.2772911 0.3913227 0.8774829 185 186 184
3.76685390489728 2.11965841742077 -0.317511349916458 -0.6367521 0.03060714 0.7704609 182 183 180
3.76637948172719 2.12341529818096 -0.318433523178101 -0.560363 0.1160927 0.8200706 184 187 185
3.76747659462125 2.121028251367 -0.317662566900253 -0.614362 0.05544084 0.7870741 184 187 184
3.769055581266 2.12168068380871 -0.315779685974121 -0.5233045 0.1012947 0.8461039 188 193 189
3.77247590439946 2.11964053602734 -0.314326733350754 -0.3309614 -0.09568134 0.9387809 203 203 201
3.77070123570592 2.12327451201 -0.315549850463867 -0.4231654 0.2414432 0.8732905 201 203 201
3.77228019254834 2.12372667284527 -0.3150235414505 -0.3118482 0.37866 0.8714169 198 201 199
3.77270272987516 2.12276298494854 -0.314371198415756 -0.3704403 0.195191 0.9081159 205 205 205
3.76596436517865 2.12405282946148 -0.318952441215515 -0.5584393 0.09201806 0.824426 189 191 190
3.76632017510564 2.12924928160229 -0.318885713815689 -0.3089724 -0.06259604 0.9490088 204 206 206
3.76680943983228 2.12574297876873 -0.318463176488876 -0.4915353 0.09845155 0.8652747 204 204 207
3.77050108330877 2.12574297876873 -0.316728532314301 -0.2941513 0.4918922 0.8194614 201 203 204
3.76991177218587 2.12714404554882 -0.317128837108612 -0.1389293 0.4881306 0.8616422 209 209 211
3.76689836996228 2.1281003424696 -0.318552136421204 -0.3779063 0.1063316 0.9197176 202 202 202
3.76903331893117 2.12905663939037 -0.318040609359741 -0.03891523 0.3339488 0.9417875 203 203 205
3.77176130431325 2.12718111963787 -0.317099183797836 -0.07560014 0.655737 0.7511948 204 205 207
3.77077538388402 2.12520176859417 -0.315913110971451 -0.2643907 0.480611 0.8361284 201 203 202
3.77233952897222 2.12675113173046 -0.316224455833435 -0.05703268 0.6944967 0.7172319 196 200 199
3.77261379974515 2.12576527090588 -0.315727770328522 -0.19258 0.5479556 0.8140379 193 196 194
3.74990782755048 2.13309664221325 -0.335364758968353 -0.9967331 0.01096876 0.08001713 183 184 181
3.74977440255315 2.13399357290783 -0.333474457263947 -0.9913017 0.02209962 0.1297408 188 189 186
3.75021917241246 2.13170296640911 -0.332874000072479 -0.9368812 -0.1185896 0.3289225 185 187 185
3.75067878382833 2.131406492906 -0.331317275762558 -0.8667772 -0.2206502 0.4472255 182 184 181
3.75044158714444 2.1373627850584 -0.333841383457184 -0.9911073 0.09491108 0.09326462 182 183 178
3.75088635700376 2.13957554789105 -0.333576738834381 -0.9483626 0.147335 0.2808927 183 184 180
3.75078848617704 2.1414436766676 -0.333656787872314 -0.9324563 0.09074784 0.3497 186 187 184
3.75097528713376 2.13701815100231 -0.332184582948685 -0.9319894 0.1296632 0.3385015 188 190 188
3.75186488645704 2.13092464895764 -0.330383241176605 -0.7655771 -0.2953293 0.5715525 185 188 183
3.7514200867954 2.13112480135479 -0.330605626106262 -0.8153681 -0.2372251 0.528109 185 187 182
3.75288785117299 2.13165850134411 -0.328181564807892 -0.7649227 -0.2344896 0.5999233 188 191 186
3.7507084371391 2.13379342051067 -0.330383241176605 -0.8655718 0.001436293 0.5007827 184 186 183
3.75104204433591 2.1346384951643 -0.329960703849792 -0.8488802 0.05255466 0.5259662 185 187 184
3.75213173645169 2.13383788557568 -0.329093366861343 -0.8260051 -0.02845415 0.5629441 181 183 177
3.75491157787473 2.13194758387127 -0.325246036052704 -0.8687678 -0.1536684 0.4707744 184 188 183
3.75426665561826 2.13366002531567 -0.326580375432968 -0.8275754 -0.102231 0.5519671 185 188 182
3.75301239507825 2.13672012777844 -0.327634513378143 -0.8210499 0.1520834 0.5502251 189 191 187
3.75251719968946 2.13972384424725 -0.329953283071518 -0.8269535 0.2053711 0.523422 185 187 183
3.75322142856748 2.13888616056957 -0.328426212072372 -0.8171826 0.2041546 0.5390116 189 191 186
3.75351054089696 2.13899738283672 -0.328737556934357 -0.815448 0.2118732 0.5386596 185 187 180
3.75431115048558 2.13557261915722 -0.326691567897797 -0.8301368 0.08956619 0.5503187 183 186 181
3.75448907035024 2.13575047941723 -0.325846493244171 -0.8534853 0.07990423 0.5149545 180 183 176
3.75466696041257 2.13710708113232 -0.32544618844986 -0.8603467 0.09354392 0.501052 188 189 184
3.75497833507688 2.14003509970226 -0.327388405799866 -0.8684426 0.1490388 0.4728582 179 182 177
3.77045661824376 2.13005728216686 -0.327269792556763 0.4275652 -0.8115919 0.398129 180 184 171
3.75091970580251 2.14534658880749 -0.333418846130371 -0.9545915 -0.01881759 0.297323 191 191 186
3.7514200867954 2.14171046705761 -0.332162350416183 -0.8784105 0.07984103 0.4711905 185 187 183
3.75265911834867 2.14359135122814 -0.331666737794876 -0.8633797 0.03340783 0.5034476 186 187 182
3.75230965631635 2.14146584959545 -0.33136174082756 -0.8444482 0.1074065 0.5247581 187 189 184
3.75213173645169 2.14473504515209 -0.332740545272827 -0.9285088 0.01482767 0.3710143 193 194 191
3.75224292891652 2.14536876173535 -0.331484079360962 -0.8838279 -0.05932618 0.4640352 184 186 180
3.75088635700376 2.14646965952435 -0.332607120275497 -0.9251714 -0.05014202 0.3762229 195 194 189
3.75053051727445 2.14893073530712 -0.333229809999466 -0.9686593 -0.09916928 0.227738 197 185 191
3.75190935152204 2.14764828177014 -0.331984430551529 -0.9184082 -0.1173353 0.3778345 187 187 181
3.75195381658704 2.14851564856091 -0.33274057507515 -0.9504796 -0.1091407 0.2909927 186 183 179
3.7513756217304 2.14918274374523 -0.332473695278168 -0.9440567 -0.1350723 0.3008527 189 189 184
3.75184262412221 2.14914948435345 -0.331851005554199 -0.9339784 -0.1219275 0.3358839 186 187 181
3.75053051727445 2.15105087252178 -0.333140850067139 -0.991608 -0.09371588 0.08905579 189 179 181
3.75204277651937 2.15090257616558 -0.331687927246094 -0.9420482 -0.1439977 0.3030015 187 188 181
3.75115320699842 2.15216285677471 -0.331406235694885 -0.933175 -0.224257 0.2808793 181 183 178
3.75346607583196 2.14117676706829 -0.328870981931686 -0.8376983 0.1438857 0.5268381 188 190 186
3.75429633873136 2.1415770718626 -0.328426212072372 -0.854108 0.1210813 0.5058051 181 183 178
3.82624966519506 2.10787171812573 -0.338300287723541 0.3505997 -0.6818617 0.6419848 187 185 189
3.75453353541524 2.14322275610485 -0.327625602483749 -0.8917682 -0.04734556 0.4500087 181 182 177
3.75480041521222 2.1449722716383 -0.327403217554092 -0.895326 -0.1657257 0.4134323 184 185 181
3.75577891486318 2.14117676706829 -0.327403217554092 -0.8782931 0.1366918 0.4581665 182 185 178
3.75589010732801 2.14342290850201 -0.325512886047363 -0.9370418 -0.104715 0.3331476 176 179 171
3.75603095310361 2.14528352709332 -0.325772374868393 -0.9242955 -0.1935305 0.3289739 175 179 171
3.75296939032705 2.14922720881024 -0.329664170742035 -0.922577 -0.1997342 0.3300878 179 182 175
3.75313988941343 2.14937550516644 -0.327803522348404 -0.9166111 -0.2783635 0.2869457 176 179 172
3.75333262103231 2.14767057390728 -0.327136337757111 -0.8933173 -0.2805109 0.3511378 175 178 168
3.75364396589429 2.14735919924297 -0.326958447694778 -0.8852631 -0.2782607 0.3726663 173 177 168
3.7532881559673 2.14913827868023 -0.325668573379517 -0.8837758 -0.3527404 0.3074322 182 185 179
3.75373295562894 2.14904946775952 -0.325334995985031 -0.8837758 -0.3527404 0.3074322 176 179 174
3.75248754637868 2.15220732183972 -0.326780527830124 -0.9323037 -0.3073002 0.190726 188 189 185
3.75264323371083 2.15107316465893 -0.325223803520203 -0.8947065 -0.3644464 0.258223 189 191 187
3.75560102480085 2.13180679770031 -0.323192656040192 -0.7813846 -0.1744493 0.5991707 194 195 193
3.75644609945447 2.12996835203686 -0.322421699762344 -0.6801687 -0.2950619 0.6710507 189 193 189
3.75651279705198 2.1312137314848 -0.322088122367859 -0.6807894 -0.2661351 0.6824207 189 190 189
3.75907028334768 2.13014621229687 -0.321665585041046 -0.527033 -0.3517329 0.7736409 202 203 206
3.75866997855336 2.13294834585705 -0.320687055587769 -0.6414835 -0.2191671 0.735163 203 204 203
3.75872928517492 2.13410479517498 -0.319886445999146 -0.6499392 -0.2088596 0.7307234 192 195 193
3.75495610254438 2.13761848898449 -0.324334263801575 -0.8698906 0.06119693 0.4894336 191 192 188
3.7581659020725 2.13552815409222 -0.321799010038376 -0.7647949 -0.08195614 0.6390398 191 193 192
3.75635713952214 2.13735169859448 -0.322844237089157 -0.8623105 -0.04188804 0.5046445 187 189 184
3.75606060641439 2.13945693464794 -0.3234001994133 -0.9224802 0.02452139 0.3852648 186 187 183
3.75782490389974 2.13712925406017 -0.321487665176392 -0.8305879 -0.1421748 0.538433 190 192 190
3.75652391331823 2.14125461073437 -0.321376472711563 -0.9168 -0.1840331 0.3544143 180 182 176
3.75833640115888 2.1381523081831 -0.319841980934143 -0.8383971 -0.2275787 0.4952759 176 179 175
3.75801763551862 2.13948661776104 -0.319908708333969 -0.8887308 -0.2012327 0.4119017 178 182 177
3.76009327786596 2.13321525545635 -0.318507641553879 -0.5191059 -0.3882158 0.7614575 195 199 198
3.76009327786596 2.13659555407086 -0.317395687103271 -0.6585598 -0.3851661 0.6464875 180 183 180
3.7581214370075 2.1413101622633 -0.318048030138016 -0.8862252 -0.3132662 0.3412758 174 177 173
3.75907028334768 2.13969785662213 -0.317284494638443 -0.7881059 -0.4182389 0.4516252 178 182 181
3.76033792513044 2.13808555098095 -0.315549850463867 -0.6394842 -0.5023594 0.581975 175 182 179
3.76265076416166 2.13188094587841 -0.319775253534317 -0.3136518 -0.3966077 0.8627427 207 208 210
3.76938915866048 2.13023526163616 -0.319397211074829 0.2106016 0.293643 0.9324273 206 207 204
3.77072346823842 2.13317079039135 -0.319530636072159 0.310466 -0.2119014 0.9266654 185 186 180
3.76525271552236 2.13081342669048 -0.318685561418533 -0.213198 -0.2482342 0.9449478 193 195 193
3.76667598503263 2.13005728216686 -0.318552136421204 -0.1929764 -0.0710758 0.9786257 201 202 201
3.76310295479924 2.13367480726757 -0.318077683448792 -0.212934 -0.4768515 0.8528023 206 209 209
3.76443303244741 2.13377434702435 -0.317541837692261 -0.07108686 -0.4917555 0.8678268 205 207 207
3.76347357648046 2.1348164746336 -0.316906452178955 -0.1046063 -0.5420668 0.8337992 204 204 205
3.7657642127815 2.13357109518566 -0.317462414503098 0.0967673 -0.3793845 0.9201649 197 198 195
3.76738763468892 2.13156957121411 -0.318596601486206 0.09942606 -0.1258315 0.9870567 205 205 204
3.76823270934255 2.13294834585705 -0.318670719861984 0.1809576 -0.2681786 0.9462212 203 203 202
3.76614228504331 2.13708478899517 -0.315861225128174 0.239809 -0.4992713 0.8325982 194 191 191
3.76282868402631 2.13601726980724 -0.315861225128174 -0.2416452 -0.5148898 0.8224938 207 207 206
3.76414076107175 2.13721818419018 -0.315305233001709 0.009057293 -0.5490472 0.8357422 198 201 191
3.76276195662648 2.1378853985838 -0.314549118280411 -0.2311018 -0.5561084 0.7983329 203 204 198
3.76298434155614 2.13881940336743 -0.314415693283081 -0.1562594 -0.5679995 0.8080592 207 209 207
3.76443726437719 2.13887876959362 -0.314208120107651 0.1438533 -0.5368395 0.83133 197 197 193
3.76591987031133 2.14019829721966 -0.314104318618774 0.3292568 -0.4888059 0.807873 188 187 182
3.7667056383434 2.1414436766676 -0.313941240310669 0.335835 -0.4801537 0.8103501 193 193 186
3.77274722474248 2.13650662394085 -0.319174826145172 0.2993462 -0.3309187 0.8949216 186 186 185
3.76961154359014 2.13886398764172 -0.316595107316971 0.3681874 -0.4402532 0.818911 212 212 210
3.77104965465696 2.13902694674053 -0.317277103662491 0.3652229 -0.4322918 0.824461 196 197 193
3.75626817958982 2.14193291159191 -0.323578119277954 -0.9667221 -0.03923127 0.2528029 183 184 178
3.75591233986051 2.14584691019573 -0.32326677441597 -0.9501616 -0.2069589 0.2331544 174 177 171
3.75791386383207 2.14135474653759 -0.319308251142502 -0.8804296 -0.2734787 0.3873669 174 179 171
3.75693533437879 2.14295584650555 -0.319486171007156 -0.9088366 -0.2644017 0.3226574 175 178 171
3.75560099499852 2.1449129054121 -0.319738179445267 -0.9659439 -0.1694003 0.1955909 180 181 177
3.75500795858533 2.14936072321453 -0.323681890964508 -0.8965693 -0.3356868 0.2889253 179 181 177
3.75317696350248 2.15085072012463 -0.32428976893425 -0.8739449 -0.3825533 0.2997886 183 186 181
3.75441280620725 2.15138132067242 -0.32150673866272 -0.8526747 -0.2502373 0.4586143 184 186 179
3.75560099499852 2.1482487389616 -0.321621090173721 -0.9316889 -0.2647997 0.2486703 179 181 176
3.75568995493085 2.14962763281384 -0.321287512779236 -0.9025884 -0.1766745 0.3925815 177 179 172
3.75720221417577 2.14304489584484 -0.318329721689224 -0.8975716 -0.3285308 0.2939945 177 180 176
3.75724667924077 2.14388997049847 -0.316417187452316 -0.8870785 -0.3058158 0.3457867 180 182 179
3.75881824510724 2.14171046705761 -0.31537938117981 -0.7950243 -0.4438982 0.4133892 175 179 178
3.76007101553113 2.14127690287151 -0.313437163829803 -0.5871398 -0.5229193 0.6179176 190 193 191
3.75671294944913 2.14691442938366 -0.31572037935257 -0.9273475 -0.1231937 0.353341 186 187 184
3.75810659545095 2.14529842825451 -0.313555777072906 -0.8212099 -0.2741874 0.5004353 189 188 184
3.75720221417577 2.15211839170971 -0.316550612449646 -0.8495365 0.1472151 0.5065722 186 187 180
3.75793609636457 2.15136224718609 -0.316239267587662 -0.8817919 0.1567282 0.4448363 185 188 186
3.75789163129956 2.14867133589306 -0.313770771026611 -0.9019172 0.05363818 0.4285655 189 189 185
3.76832166927488 2.14122123213329 -0.314882695674896 0.3928111 -0.4639011 0.7940373 186 187 176
3.77014527338178 2.14371199102917 -0.314237773418427 0.3873995 -0.4744752 0.7904397 184 184 163
3.77252483981282 2.14473504515209 -0.31503838300705 0.3762232 -0.4778499 0.7937981 170 174 162
3.7717019976917 2.14489073248425 -0.314126551151276 0.3953395 -0.4671175 0.7908906 181 183 173
3.7572911741081 2.15282995195904 -0.348441243171692 -0.8666415 0.07995806 -0.4924827 172 164 164
3.76044908779294 2.15865654440441 -0.349731117486954 -0.8482966 0.005709179 -0.5294905 183 170 176
3.75929266827733 2.16070253344097 -0.348708122968674 -0.8205582 -0.004819765 -0.5715426 187 173 182
3.76044908779294 2.16119176836529 -0.349864542484283 -0.855433 -0.06609315 -0.513679 183 158 173
3.76316223161847 2.15300793142834 -0.357492506504059 -0.9623865 -0.1641616 -0.2164789 202 154 190
3.76298434155614 2.15705532522717 -0.357826083898544 -0.9546106 0.002218441 -0.2978485 190 172 180
3.76292873042257 2.15523178072491 -0.355958014726639 -0.9605343 -0.07148464 -0.2688191 207 157 195
3.76387388127477 2.1615031430296 -0.358315348625183 -0.9539752 0.01583493 -0.2994672 176 145 157
3.76359591501386 2.16303772421398 -0.357814967632294 -0.949393 -0.02995331 -0.3126593 204 153 191
3.76286572831304 2.16119188757458 -0.355424284934998 -0.9536816 -0.01496923 -0.3004451 190 159 182
3.76084939258725 2.17119938822308 -0.35662516951561 -0.8811548 0.1745322 -0.4394368 162 164 153
3.76024893539579 2.16950911970654 -0.351487994194031 -0.9050891 0.2744892 -0.3247605 179 178 174
3.75822520869405 2.16768557520428 -0.348752588033676 -0.883401 0.2416551 -0.401504 184 184 184
3.75947058814199 2.16928679438152 -0.349642157554626 -0.8666645 0.3702186 -0.3344113 176 177 169
3.76093835251958 2.17168862314739 -0.352711111307144 -0.9228061 0.2913317 -0.2521004 168 170 165
3.76068631427915 2.1715847918562 -0.351895689964294 -0.8971542 0.3700442 -0.2412087 165 167 158
3.76111624258191 2.17333430738964 -0.35328933596611 -0.9045931 0.353409 -0.2383559 161 163 152
3.75902578848035 2.16982049437084 -0.35008692741394 -0.8666645 0.3702186 -0.3344113 178 178 176
3.75964847820432 2.17068786116161 -0.35008692741394 -0.8717018 0.4113084 -0.2663857 176 178 172
3.76360703128011 2.16608435602703 -0.358893543481827 -0.8873805 -0.03540485 -0.4596764 176 159 166
3.76367375867994 2.16684050055065 -0.358204126358032 -0.9043583 -0.02365579 -0.4261179 166 156 158
3.76351807134778 2.16434974165478 -0.357247859239578 -0.9368076 -0.04749838 -0.3466056 207 155 197
3.76169446724088 2.16719634027996 -0.353333830833435 -0.9200931 -0.05074115 -0.3883992 180 173 173
3.76156104224355 2.1684417197279 -0.354134410619736 -0.902644 0.06447843 -0.4255307 165 163 157
3.76271746175916 2.17117709608593 -0.357670426368713 -0.8304244 0.1815395 -0.5267245 162 166 155
3.76369599121244 2.17311186285534 -0.357603698968887 -0.7680496 0.3349891 -0.5457857 166 168 161
3.76625344770581 2.17544693441906 -0.357981741428375 -0.6210344 0.4874879 -0.613736 166 169 159
3.76254696267278 2.17509109468975 -0.353519141674042 -0.8910778 0.4265822 -0.1549453 165 167 157
3.76209477203519 2.16523928137341 -0.353378295898438 -0.9119759 -0.1274803 -0.3899342 184 174 178
3.76178342717321 2.17422384710827 -0.352844566106796 -0.8813746 0.4440567 -0.1612217 166 169 159
3.76149431484372 2.17351216764965 -0.34970885515213 -0.8427525 0.5350493 -0.05908072 155 157 151
3.7624506117645 2.17497999163189 -0.350264847278595 -0.8520694 0.5202597 -0.05751141 151 157 143
3.75742459910543 2.15443117113629 -0.346840053796768 -0.8523839 0.03275625 -0.5218896 173 173 164
3.75413323062093 2.15941268892803 -0.342925995588303 -0.8523433 0.05376168 -0.5202121 171 174 164
3.75302127617032 2.15276331396618 -0.338967472314835 -0.9191118 -0.008889982 -0.3938964 190 168 182
3.75288785117299 2.15525407286205 -0.338700592517853 -0.8905137 -0.1102741 -0.4413898 183 169 178
3.75568995493085 2.15398640127697 -0.341502696275711 -0.8549516 -0.04549834 -0.5167084 188 173 179
3.75297681110532 2.16021329851666 -0.339768052101135 -0.8457734 0.2231323 -0.4846435 169 172 160
3.75087151544721 2.15924961061993 -0.337751746177673 -0.8927408 0.2187476 -0.3939078 168 171 163
3.75580856817395 2.16523928137341 -0.345387101173401 -0.9052414 0.2537894 -0.3407772 178 176 177
3.75653502958448 2.16684050055065 -0.346528708934784 -0.9258311 0.2120105 -0.3128712 179 178 178
3.75717256086499 2.16896063776531 -0.345550179481506 -0.8503519 0.5182478 -0.09121869 169 172 166
3.75626817958982 2.16528374643841 -0.343103915452957 -0.9222432 0.3262388 -0.2074506 173 178 169
3.75915924328 2.17217785807171 -0.346884518861771 -0.7760872 0.6184166 -0.1234893 162 165 153
3.75894794481427 2.17148847075024 -0.345572412014008 -0.769329 0.6366426 -0.05309483 172 173 166
3.76040462272794 2.17308968992748 -0.345016449689865 -0.7145036 0.6962814 0.06838698 180 179 173
3.75764698403508 2.16959804983654 -0.34301495552063 -0.8226147 0.5674906 0.03548894 178 180 173
3.7608642341438 2.17264492006817 -0.34165096282959 -0.6743706 0.7269976 0.1292234 177 179 168
3.75533414500386 2.16612882109203 -0.33981254696846 -0.89012 0.4438494 -0.1033635 166 170 160
3.75512287634046 2.16502804251232 -0.337555289268494 -0.8782609 0.4593528 -0.1328642 169 173 162
3.75564548986585 2.16497249098339 -0.340524196624756 -0.9013765 0.4120915 -0.1330445 165 169 158
3.75542310493619 2.16670710535565 -0.339545667171478 -0.8633525 0.4931656 -0.1068178 166 169 158
3.75831416862638 2.16973156424084 -0.341458231210709 -0.7688525 0.6365287 0.06080319 174 174 165
3.75929266827733 2.17119938822308 -0.34083554148674 -0.7225609 0.6897823 0.04589292 181 182 174
3.75982639806897 2.17128831835308 -0.340702086687088 -0.6899067 0.7145379 0.116036 178 180 172
3.76293984668882 2.1750689217619 -0.34587636590004 -0.7792363 0.6178482 0.1051396 176 177 171
3.76356253641278 2.17522460909405 -0.343281805515289 -0.8058911 0.5530121 0.2114643 179 179 174
3.762517309362 2.17395693750897 -0.341969728469849 -0.667586 0.730323 0.1447659 176 178 167
3.76209477203519 2.17268938513317 -0.339768052101135 -0.5782493 0.7951859 0.1825025 177 179 170
3.76429641860158 2.1733564803175 -0.337677597999573 -0.5045111 0.7487456 0.4299402 175 176 164
3.7663913430515 2.17532689066448 -0.337971150875092 -0.6162519 0.6649796 0.4219429 181 182 173
3.76491913812787 2.1768702933363 -0.356180399656296 -0.6889082 0.4946654 -0.5298223 166 168 159
3.76387388127477 2.17600292654553 -0.355824589729309 -0.7472984 0.4701203 -0.4696084 170 171 165
3.76783243435056 2.17569155188122 -0.359026968479156 -0.5620697 0.5000564 -0.6588029 153 153 142
3.76756555455358 2.17742628546276 -0.358137428760529 -0.5690229 0.5122536 -0.64328 162 165 157
3.76921123879583 2.17911643477001 -0.357692658901215 -0.4745267 0.5657779 -0.6743292 163 165 155
3.76801032441289 2.17942769022503 -0.356224864721298 -0.6067638 0.5252591 -0.5966074 164 165 156
3.7665425600353 2.1817998358778 -0.353645175695419 -0.7219141 0.5476942 -0.4229315 167 169 159
3.76796585934789 2.18249673338452 -0.354757100343704 -0.5450699 0.6049496 -0.5804608 167 169 159
3.76947808879049 2.18405348749676 -0.353912025690079 -0.5194294 0.6870597 -0.5080768 167 168 159
3.76934466379316 2.18458718748608 -0.354089945554733 -0.5256164 0.6590798 -0.5379044 165 166 158
3.76328084486158 2.17702598066845 -0.347892701625824 -0.9128588 0.4046999 0.05391432 169 171 161
3.76405180113942 2.17951673956432 -0.349019467830658 -0.92342 0.3816575 0.04041155 163 166 153
3.76529718058736 2.18111795874157 -0.35110992193222 -0.830277 0.5172266 -0.2076457 163 166 156
3.76616448777349 2.18245214911022 -0.351399004459381 -0.8106243 0.5566299 -0.1818006 161 164 154
3.76520822065503 2.18222982378521 -0.35022035241127 -0.8264526 0.549906 -0.1207454 168 171 163
3.76623121517331 2.18318612070599 -0.349130630493164 -0.7558013 0.6518206 -0.06240433 184 185 179
3.76974496858747 2.18596596212902 -0.35226634144783 -0.5926755 0.7070004 -0.3858577 165 166 156
3.76716524975927 2.18527657480755 -0.348018705844879 -0.7918785 0.6104165 0.01789703 182 181 175
3.76809928434522 2.18592149706402 -0.348352283239365 -0.8336328 0.5519364 0.0205582 185 185 181
3.77236915248067 2.19036931486645 -0.350175887346268 -0.5875243 0.6914968 -0.4202943 168 168 164
3.76342911141545 2.17591399641552 -0.34724035859108 -0.8278542 0.5586011 0.05120826 165 168 156
3.76365149634511 2.17631430120983 -0.345283329486847 -0.8464975 0.5208717 0.1101576 175 178 172
3.76440761106641 2.17809338064709 -0.342703610658646 -0.8308074 0.4329444 0.3497403 187 186 183
3.76534164565236 2.18027276487866 -0.343326300382614 -0.755071 0.5236014 0.3946002 178 180 177
3.76715043800504 2.18065828772106 -0.342273652553558 -0.6063379 0.5794436 0.5446095 186 187 184
3.76538614051969 2.1820964285902 -0.346439749002457 -0.8312133 0.5235999 0.1868893 180 182 176
3.76538614051969 2.18249673338452 -0.346795558929443 -0.8244889 0.5315981 0.1939626 180 180 175
3.76610890644223 2.18171829672375 -0.344949752092361 -0.7535449 0.557079 0.349046 174 176 173
3.76998958604963 2.18672222586193 -0.345572412014008 -0.8091102 0.3331464 0.4841014 181 184 180
3.76852182167203 2.1815626093916 -0.341947495937347 -0.6221927 0.5747266 0.531569 185 185 180
3.7707568468395 2.1868777939848 -0.343203961849213 -0.773098 0.3228669 0.5459638 181 184 180
3.76976720111997 2.18465394468823 -0.342859268188477 -0.7540904 0.4403902 0.4872412 179 182 179
3.76467449086339 2.17698151560345 -0.341413736343384 -0.7166889 0.5285393 0.454976 182 180 176
3.76430383937986 2.17548400850811 -0.33981254696846 -0.6116253 0.6786854 0.4065718 182 182 175
3.76680943983228 2.17711491079846 -0.34015354514122 -0.6538823 0.5321656 0.5378082 182 183 176
