ply
format ascii 1.0
comment File exported by Rhinoceros Version 7.0
element vertex 498
property float x
property float y
property float z
property float nx
property float ny
property float nz
property uchar red
property uchar green
property uchar blue
end_header
4.03201085295497 2.25976991564122 -0.350221262247072 0.02675209 0.70573 0.7079756 182 183 175
4.04268396734902 2.31387015197059 -0.358130732537583 0.3404086 -0.8348981 0.4325127 190 175 176
4.01243718722524 2.28956807830033 -0.351750758977999 0.6375402 -0.7702879 -0.01411553 179 177 165
4.02942093275533 2.26084507214271 -0.354492465311061 -0.1956222 0.9565012 0.2164196 171 173 163
4.06697987403466 2.26014841416898 -0.347149956193583 -0.1779575 0.929361 0.3234491 225 191 214
4.00414765724707 2.26655967726678 -0.359420894185376 0.6548817 0.5412734 0.5274023 192 189 182
4.05963873139761 2.25391474144968 -0.337552129883395 0.04404206 0.8734786 0.4848664 187 186 181
4.02160804972955 2.29409674609871 -0.376444992954412 0.5118523 -0.6247452 0.5896615 189 185 180
4.01645052949807 2.28437678274497 -0.375604973373859 0.9442095 0.1670983 0.2838075 196 196 191
4.05269384014739 2.26201948683882 -0.363322019102368 0.1987359 0.727957 0.656188 187 185 178
4.01768972433456 2.29688584274061 -0.361703522879092 0.8715342 -0.484574 -0.07494094 179 177 170
4.05227301772548 2.32004198011558 -0.354480044475834 0.09790203 -0.9218883 0.3748828 198 195 188
4.06934638108325 2.31996775161712 -0.344255489050013 -0.7207028 -0.4560827 0.5220882 207 206 199
4.01086095422262 2.25472517543663 -0.349139500674347 0.652494 0.7513688 0.09847169 188 187 180
4.03497175868159 2.2979564337159 -0.381279151682975 0.460864 -0.4363894 0.7727669 202 187 191
4.07148770062936 2.27030314605684 -0.340672832085348 -0.6438166 0.5412529 -0.5408747 208 156 198
4.05718916423478 2.32380029493311 -0.345546419432159 -0.156919 -0.9322619 0.325982 199 198 192
4.0162146907144 2.25032937880202 -0.346821032732771 0.3486223 0.8994134 0.2636628 187 187 178
4.04347734195336 2.29485487342402 -0.386412384814089 0.1210774 -0.4081688 0.9048417 199 196 190
4.01526690518769 2.24954646599432 -0.345245937154769 0.5229554 0.8119272 0.2594068 181 180 169
4.03743894598789 2.27929261603882 -0.38438463979892 -0.2069644 0.3429905 0.916255 194 192 181
4.00734403649925 2.26365181400632 -0.359123647371359 0.2184349 0.6506733 0.7272622 194 192 183
4.08061648361828 2.28062423640469 -0.368295018287083 -0.8509011 0.2066943 0.4829543 211 209 203
4.06632274126211 2.31204942771305 -0.364058073798026 -0.7844163 -0.5098531 0.3531867 213 211 205
4.03654910109504 2.26647217268246 -0.370158158423914 0.147664 0.9129131 0.3805061 184 184 178
4.07013597785815 2.30857937793058 -0.362929517340196 -0.937103 -0.2076322 0.2805831 206 204 199
4.06799163097792 2.31113507180797 -0.365719270961806 -0.7909117 -0.4221221 0.4430256 210 208 202
4.06744500745221 2.31239709605904 -0.359287371681844 -0.7873144 -0.5984797 0.148183 210 209 203
4.05500150396692 2.27899176656519 -0.388162865223042 0.1104248 -0.3448109 0.9321544 195 192 186
4.04347250233209 2.30797873514515 -0.375397114299682 0.4851401 -0.8595323 0.1607586 187 180 171
4.04308015212838 2.30224766706007 -0.382737643962162 0.3914426 -0.3762744 0.8397561 195 192 185
4.04222843785241 2.31262100597834 -0.346663850783567 0.5973508 -0.6586566 -0.4575407 169 165 152
4.05306780423725 2.25584462821425 -0.35988628655421 0.2243009 0.693893 0.6842526 187 185 177
4.0842541861852 2.27669157866429 -0.349664745909708 -0.9258429 -0.1341587 -0.3532935 196 194 190
4.024862391009 2.25958526731736 -0.350710768870279 -0.1756317 0.8565612 0.4852385 179 180 171
4.01966968261571 2.25953735764393 -0.356040004870471 0.04557322 0.760277 0.6479984 192 192 187
4.06395717825909 2.30273292670805 -0.381771204770347 -0.6187564 -0.4469383 0.6460547 213 212 208
4.02729375575505 2.25947208770434 -0.350708499212406 -0.1372369 0.8191534 0.5569146 182 184 174
4.07707708842399 2.28006896165852 -0.373653570877856 -0.827922 0.3017145 0.4727721 199 198 189
4.00131895323986 2.26973372197423 -0.356282233164235 0.9674366 0.2516573 0.02711335 190 188 184
4.06278804788518 2.28692100840519 -0.382038121701319 -0.1265876 -0.4061461 0.9049977 220 217 211
4.03319199373214 2.24731569289475 -0.338999343920852 0.4119725 0.82726 0.3819941 170 173 163
4.02035317351832 2.2887680055169 -0.380588184485012 0.5667211 -0.3532518 0.7443388 193 192 186
4.03680193920249 2.31325342566597 -0.353655472568484 0.5050685 -0.8584872 0.08891239 188 173 174
4.04482032076139 2.28234064776969 -0.387357767975533 0.1740818 0.3276533 0.928622 200 197 191
4.03718321232447 2.25130951442989 -0.345624388016107 0.4384389 0.62402 0.6468155 187 188 183
4.07932406053537 2.28731292031172 -0.367843287230452 -0.7676123 -0.5700812 0.2928801 212 210 205
4.05481027309621 2.30784621500249 -0.38091476368273 -0.2110063 -0.5955654 0.7750989 216 212 207
4.07093765179586 2.26170464232425 -0.360780265829118 -0.6355897 0.7585157 -0.143804 181 185 171
4.03201420834666 2.30795358469701 -0.356880308912952 0.5403686 -0.8096848 0.2289375 192 175 178
4.00440324931767 2.26309573420048 -0.355894982931993 0.8161524 0.4805687 0.3208565 194 191 184
4.02826849142273 2.25835963666507 -0.349147282753989 -0.1160197 0.5806782 0.8058239 184 183 170
4.06562637959802 2.27061265603058 -0.380924855027662 -0.7928061 0.2815562 0.5405411 185 184 176
4.0442778478074 2.29379998106873 -0.387340514993285 0.1079611 -0.3563158 0.9281075 195 192 184
4.04785441832788 2.26287036092044 -0.365379713626312 -0.0573139 0.8233504 0.564632 183 182 173
4.04136703519588 2.25093991978491 -0.337727041248438 -0.5246844 0.7466806 -0.4088697 135 140 127
4.07051066570611 2.30352447482626 -0.363604847123173 -0.9610618 -0.2745245 -0.03156638 205 203 197
4.01688973005489 2.2530214397935 -0.334532257878407 0.3799139 0.6719009 -0.6357787 169 169 160
4.06016908649341 2.25961974745476 -0.351947324464079 -0.4034795 0.8380776 -0.3671924 201 198 193
4.04631871782754 2.30739450533737 -0.381430146681477 0.2888615 -0.7003561 0.652733 206 203 199
4.07683707680865 2.27319679165102 -0.369378498415751 -0.7416053 0.3400228 0.5782785 193 192 182
4.03244912314159 2.29317618948839 -0.382007366999446 0.4259326 -0.5276073 0.7349912 212 187 197
4.07356075064697 2.29856727719755 -0.351031756046108 -0.9152529 -0.1561374 0.3713937 203 201 195
4.0852773169614 2.2738737880676 -0.359657692216875 -0.9347944 0.1226192 0.3333527 200 198 190
4.02773986284956 2.27147280581149 -0.376760593647985 0.4755405 0.6851338 0.5517725 190 189 182
4.05764182162997 2.25897787390372 -0.363318046021523 0.1788625 0.7444983 0.6432189 188 186 180
4.01584734163928 2.26481728060471 -0.331446957189615 0.6383437 0.06644487 -0.7668783 173 173 168
4.07199919603815 2.29986254237795 -0.362238190312107 -0.9769216 -0.03186701 -0.2112079 199 199 190
4.07277937923448 2.29981729167524 -0.35303435174596 -0.9020262 -0.1123847 0.4167953 209 207 201
4.04496315212019 2.31254283542698 -0.360190888612776 0.3420435 -0.8432965 0.4145565 177 174 158
4.04496347223441 2.31321038006735 -0.344292516159428 0.6510333 -0.5834049 -0.4855866 165 159 147
4.08308225599347 2.27798524992407 -0.353361476160219 -0.922375 -0.319075 -0.2177512 202 201 196
4.06031660908826 2.26874510009271 -0.386891374673455 -0.3277552 0.4876252 0.809196 198 195 187
4.0260530635672 2.25309175004819 -0.346964819305343 -0.3027705 0.8497749 0.4315236 171 173 165
4.03122716763041 2.30089817780421 -0.37758927947192 0.4441959 -0.4600071 0.7688196 229 187 214
4.08372251861646 2.27768978885582 -0.35032898469537 -0.9192329 -0.278227 -0.278569 196 194 188
4.05068922732143 2.29779351183477 -0.38443394211464 -0.1577479 -0.1227446 0.9798211 195 191 185
4.00882766942383 2.2612475196305 -0.356175796871091 0.05803277 0.6073357 0.7923229 194 193 182
4.02542675089046 2.26245920680211 -0.361237372888929 0.02662339 0.7092214 0.7044829 191 191 182
4.02551113142739 2.27305724927829 -0.374128075970194 0.6119792 0.6283128 0.480317 192 190 184
4.01338678734322 2.26789346354352 -0.333657704602829 0.770419 -0.1237056 -0.6254211 174 172 160
4.08108445100724 2.27084916275521 -0.348919133243732 -0.664056 0.4777076 -0.575174 180 176 170
4.07027545606833 2.30525835567521 -0.366887624566722 -0.864892 -0.4740911 0.1649226 206 204 197
4.02965611004046 2.2696601032119 -0.374861462114448 0.3162006 0.7983834 0.5124463 182 184 176
4.03550783242368 2.28382005237116 -0.387479545069651 -0.1619104 0.1122242 0.9804034 189 186 179
4.01177944283484 2.28867200356392 -0.356662710875088 0.5976208 -0.8017533 -0.006409754 177 175 162
4.01526214829787 2.2824753035354 -0.371263313893562 0.6767158 0.5082523 0.5326681 186 184 175
4.01306374679678 2.26807643565819 -0.36291410432612 -0.05071817 0.6988564 0.7134616 188 188 181
4.06538546750511 2.2625285030352 -0.374410350279547 0.1488523 0.9124461 0.3811627 184 184 171
4.03361669208383 2.26615352692963 -0.369008918068006 0.1362615 0.9058589 0.4010641 186 187 181
4.06024506959986 2.26348779042775 -0.368140358142668 0.2717319 0.8301958 0.4867614 182 183 174
4.02995170617175 2.2730486388772 -0.378769610988392 0.4306013 0.7557288 0.4934131 183 182 171
4.06356661900633 2.25992038472864 -0.366136742968591 0.06251963 0.8395693 0.5396431 184 185 174
4.01113044227123 2.25458691666155 -0.351018933389292 0.6023961 0.7274129 0.3286175 185 183 176
4.04523633577991 2.264189827301 -0.36712225753428 0.1711048 0.9123557 0.3719277 167 170 165
4.01162773820561 2.27232190629506 -0.365605072298968 0.3378375 0.1318987 0.9319166 188 186 178
4.07648293289012 2.27858883478948 -0.375388773775068 -0.7634121 0.335797 0.551763 197 196 185
4.08403965355867 2.27857995754441 -0.360489911324107 -0.9433318 -0.25621 0.2109066 206 203 196
4.03545208103557 2.29706993694463 -0.382541928917384 0.4688293 -0.4637893 0.7517304 197 192 188
4.01694810158566 2.25774139078551 -0.354964920469049 -0.01099673 0.5692614 0.8220831 197 197 190
4.03790209506138 2.30170000047189 -0.380525227437981 0.382117 -0.4475241 0.8085226 213 187 201
4.07238934626176 2.26233928604393 -0.368457419483441 -0.7374023 0.5952767 0.319192 181 181 171
4.05093171457939 2.26253789196082 -0.364187226816586 0.006627033 0.8012615 0.5982776 182 180 172
4.04484437310073 2.26158677260736 -0.363977711146599 0.1384527 0.7254909 0.6741616 200 198 195
4.08164951166075 2.28418805194702 -0.36685064178289 -0.9167325 -0.07652345 0.3921043 196 192 183
4.05857813741753 2.32282671652774 -0.344446542379498 -0.1809626 -0.9011843 0.393852 198 198 190
4.0121373731499 2.28473504810878 -0.369844909527432 0.7155173 0.06394475 0.6956623 193 193 186
4.07483179695704 2.27140482751855 -0.370508671662882 -0.6721935 0.471594 0.5707495 183 184 169
4.01878264586749 2.29467519185638 -0.351753731887664 0.7840569 -0.6189603 0.04629201 181 179 167
4.06670668188335 2.26041708860863 -0.364650194694534 -0.2016083 0.910333 0.3614525 183 184 173
4.04838721257679 2.25642856921933 -0.340207985000335 -0.4749449 0.8520105 -0.2202395 163 166 149
4.00433784248224 2.27715059473875 -0.361807371333933 0.6425465 -0.1275085 0.7555631 190 188 180
4.08261666494133 2.28515791705394 -0.358567922900385 -0.8240768 -0.5626037 -0.06613921 202 200 194
4.04199852886882 2.25425946256686 -0.353449029163218 0.4298035 0.6749218 0.5997912 181 181 171
4.02416737531551 2.25302486276735 -0.348493524602881 -0.2758918 0.5658303 0.776994 182 182 171
4.07351760122907 2.29224502698811 -0.35680221912626 -0.7388808 -0.4029763 0.5400605 206 204 199
4.0695970299398 2.30458075320005 -0.370507825919882 -0.7749154 -0.5172201 0.3633035 210 208 202
4.01434051747329 2.28818781387958 -0.336210110874146 0.9380941 -0.1117079 -0.3278732 173 171 158
4.06917825030215 2.315265843269 -0.348529546449404 -0.8899195 -0.3701462 0.2665243 203 202 193
4.03520642630765 2.26695923673035 -0.371232510421027 0.1908495 0.8828604 0.4291083 191 190 184
4.06965176360646 2.31810579211922 -0.344596385015182 -0.8109068 -0.3309534 0.4825972 208 205 198
4.01102889308006 2.28746592732817 -0.366861850648086 0.8318979 -0.3939716 0.3908099 186 185 178
4.06920916139104 2.29361020995756 -0.359800023930654 -0.9239206 -0.3266586 0.1991602 201 200 193
4.00921322254827 2.25824834400858 -0.353836447308872 0.2916601 0.7752987 0.5602198 191 191 183
4.00743039216866 2.28500880395699 -0.351920406510021 0.7647107 -0.6049028 -0.2220591 183 180 170
4.02199398083922 2.25928695932615 -0.354920780171022 -0.2624134 0.952517 0.1544367 175 178 170
4.05793315781231 2.25596333451713 -0.355765761569285 -0.3571483 0.9323124 -0.05690973 187 186 182
4.05100122725311 2.26441387626038 -0.366732765123851 -0.04747873 0.9089843 0.4141174 181 181 172
4.01898873135412 2.29540052948261 -0.372594614027306 0.6914745 -0.603976 0.3963281 224 183 212
4.05062470420165 2.26819386506793 -0.374075424697782 -0.118913 0.9663361 0.2281538 176 177 164
4.07966333352852 2.26808368929071 -0.35922665864522 -0.5665866 0.7794846 0.2671767 176 177 166
4.02913047419012 2.2493273950164 -0.337101205728662 0.4788904 0.7306077 0.4866994 169 171 161
4.06083830190911 2.26395688292997 -0.372226387211838 0.206974 0.9462988 0.248355 179 180 169
4.01574135686132 2.29659215047861 -0.337865281816769 0.8820241 -0.4438787 -0.1581306 182 180 170
4.00583869946536 2.28318727091854 -0.359213224584779 0.7513149 -0.5884758 0.2987006 185 182 171
4.01009240815126 2.28681577233425 -0.34760044311347 0.8149603 -0.5256261 -0.2440426 182 180 170
4.06610749755216 2.30986320105291 -0.369007583279417 -0.6514664 -0.4897208 0.5794524 211 209 203
4.06919659475956 2.26016450151941 -0.36481646803388 -0.2970366 0.9190348 0.2591222 195 195 188
4.03007968334245 2.27752628333371 -0.387000830513742 0.2779797 0.5467156 0.7898287 198 198 193
4.01757057456471 2.26903252368247 -0.363680432262087 0.1724437 0.7445175 0.6449472 189 190 182
4.01361831244337 2.28616152170982 -0.370926132454668 0.7801805 -0.05616926 0.6230276 193 192 184
4.03473078091709 2.30610138126191 -0.371029495258003 0.1607368 -0.9656413 0.2042075 212 202 202
4.02101870420677 2.28093899888704 -0.382372639387649 0.6775665 0.3371665 0.6536224 193 191 183
4.07490871101593 2.29604110321997 -0.348811275363481 -0.9307678 -0.2921812 0.219776 206 203 196
4.07409988868343 2.28125891671293 -0.377154696021222 -0.6693085 0.03510616 0.7421548 193 192 182
4.03926550142372 2.26695672073712 -0.372732438255636 0.2102037 0.9034758 0.3735585 192 192 188
4.04430140273605 2.30962181622937 -0.368786392834543 0.5057938 -0.8406526 0.1935867 199 173 186
4.07933183158137 2.26755617780366 -0.362604356209976 -0.6206994 0.7439891 0.2474114 182 182 170
4.07354376922549 2.2962088653918 -0.354167932742299 -0.8494562 -0.2162291 0.4813202 210 209 203
4.02843340115069 2.26079267690356 -0.359330692841104 -0.2134653 0.879043 0.4262815 190 191 186
4.01097740170926 2.25624855477886 -0.336828831449634 0.6764658 0.6400718 -0.3642829 182 181 179
4.07169545635371 2.2962663115429 -0.368523596767873 -0.995131 -0.01906 0.09670109 205 202 197
4.08245707939875 2.28436192196247 -0.344142652677152 -0.960251 -0.2695044 0.07270086 202 200 193
4.05546711044756 2.26245891171382 -0.366434147271694 0.249218 0.7935141 0.5551807 185 184 175
4.05976241831097 2.25636986757998 -0.34031836262925 0.1024394 0.8423566 0.5290951 183 183 172
4.07431718234352 2.28381339942779 -0.376593871595779 -0.5703064 -0.2096567 0.7942258 216 213 208
4.02730244954687 2.27651029721569 -0.382365500343595 0.5083982 0.7646363 0.3960589 195 194 187
4.03848803459634 2.30697101588018 -0.370171849723782 0.2535203 -0.9474337 0.195184 201 187 190
4.02777208563182 2.30518303652976 -0.359355823427417 0.5008442 -0.8647044 0.03796736 181 174 166
4.06661143754626 2.26385066787628 -0.376706150166766 -0.2920428 0.7539116 0.5884966 192 189 179
4.05994655363682 2.30027932971223 -0.384048641206642 -0.2053345 -0.2225339 0.9530563 212 210 205
4.06680254353463 2.2938884786188 -0.379345164741862 -0.7669757 -0.1365801 0.6269721 211 209 202
4.01359270247852 2.28939564157589 -0.342989380082568 0.9462742 -0.2814203 -0.1592726 181 179 166
4.07523992079188 2.29836623303633 -0.361453733507463 -0.9992128 0.02073533 0.0338201 208 206 200
4.05876970025105 2.3185199489405 -0.356121770286437 -0.2508683 -0.9603643 0.1215127 195 195 187
4.03198567828278 2.27154871212442 -0.37796010030985 0.2264576 0.8405331 0.4921596 187 189 181
4.07416637612802 2.29835001735333 -0.348894235360572 -0.9648719 -0.200882 0.1693177 205 203 197
4.02158679778358 2.29231638065806 -0.37826782904924 0.4972992 -0.6052245 0.6216083 188 187 178
4.05565908536382 2.26649539856929 -0.381678872665875 0.1505214 0.9728679 0.1757025 188 189 179
4.06398077062509 2.26219557851215 -0.370418217514921 0.2607095 0.9131754 0.313275 187 187 178
4.02874077969903 2.30614063615473 -0.355077764478133 0.6110014 -0.7624964 0.212783 189 174 176
4.08259118994176 2.2684899561309 -0.357096048539414 -0.6029944 0.7474556 0.2787614 191 190 178
4.03567761353851 2.24866733716204 -0.337032611677266 -0.1518645 0.9616044 -0.2285919 156 158 146
4.02157967066898 2.29942828813144 -0.353346895961758 0.7913857 -0.6102818 -0.0355636 176 176 164
4.08066779536882 2.27845120214041 -0.345125928585526 -0.9408682 0.005268594 -0.3387318 200 199 193
4.01839013665178 2.29781420067552 -0.36080180100069 0.8529027 -0.5118927 -0.102581 179 177 168
4.0559348405452 2.2553200074157 -0.337726399487844 0.211888 0.835033 0.5077631 175 178 169
4.06554798577733 2.30699830476484 -0.372413752278645 -0.6417686 -0.620411 0.4508028 211 208 203
4.03281535102518 2.29757505575601 -0.37994189182227 0.4614927 -0.4267845 0.7777399 232 184 216
4.00695703669755 2.26792894590008 -0.36292998618831 0.2859328 0.5050626 0.8143428 195 191 184
4.06830747016115 2.31399991340366 -0.347144662187213 -0.943484 -0.2761486 0.183248 205 204 196
4.07245075188899 2.26380809098846 -0.360215930690423 -0.6138914 0.7890102 -0.02449994 176 178 167
4.07154994602441 2.30146162854001 -0.368456906317716 -0.9361267 -0.2763889 0.2174302 213 211 204
4.06425326727952 2.32131674298262 -0.346297517558133 -0.1391678 -0.7033961 0.697041 195 192 183
4.05250851462737 2.2676373266478 -0.374935780019411 0.225182 0.9613185 0.1586185 170 175 162
4.07661026420762 2.28778381451137 -0.358369473838893 -0.5126354 -0.8563218 0.06259469 198 196 189
4.02855062997679 2.25391274588623 -0.33941665409371 0.1190453 0.8934346 0.4331313 153 162 145
4.06952763559207 2.31168695650881 -0.350136039846437 -0.929758 -0.3610424 0.07210063 205 204 196
4.03022256022668 2.25258381511456 -0.340539895865128 0.3293992 0.8589132 0.3921278 150 156 145
4.07113376792877 2.30880025816821 -0.351737401844248 -0.9089248 -0.4064598 0.0929852 203 201 193
4.06980482636117 2.29019637798256 -0.37789096736122 -0.6672375 -0.4283875 0.6093261 210 209 203
4.05687072354736 2.31003075062551 -0.377591742230975 -0.3233095 -0.7534372 0.5725412 203 200 193
4.02119278877782 2.2777551773136 -0.37157010020736 0.773333 0.4848695 0.4084821 180 181 172
4.0361177295687 2.30799309784306 -0.366794063819609 0.2675175 -0.9114165 0.3126572 217 180 203
4.02188712371183 2.25144102285314 -0.348694988344619 -0.4178327 0.7177158 0.5570457 185 188 177
4.02285280986608 2.28626522315763 -0.382518191985101 0.5758427 -0.2857367 0.7660024 196 194 187
4.04916606992535 2.31395384447805 -0.36324920224869 0.5302684 -0.7977007 0.2872089 172 170 154
4.06151706061728 2.32182217897549 -0.346528460720438 -0.164518 -0.7819783 0.6012019 202 201 194
4.05983976433706 2.27030717629266 -0.388024297765696 -0.3269086 0.3486513 0.8783923 202 199 192
4.04084070481142 2.26832737559653 -0.379724174551809 0.4617175 0.6461706 0.6076847 193 191 182
4.00745293071018 2.28415501351692 -0.361833198793155 0.808438 -0.4334576 0.3981739 190 188 179
4.01065561547308 2.25626710557273 -0.352945585818475 0.3702341 0.769238 0.5207683 191 189 184
4.0548635439839 2.31337462999419 -0.375508158734566 -0.1417578 -0.8044071 0.5769176 219 216 214
4.03461131291417 2.30412051518335 -0.377605132598598 0.4247667 -0.5787238 0.6961696 222 190 210
4.02265652300776 2.28054299760182 -0.383497500508264 0.6705019 0.4082469 0.6194851 191 190 183
4.08297497239199 2.28387133129717 -0.355542037737155 -0.869449 -0.4675475 -0.1595547 199 198 193
4.06114393197563 2.31109875162813 -0.370884012862064 -0.5400892 -0.6593605 0.5230175 212 210 204
4.04894654953045 2.31242174493702 -0.371963901849975 0.4547229 -0.8575439 0.240511 178 177 168
4.06320445073621 2.27621543900815 -0.387371876958076 -0.5810132 0.02909386 0.8133739 216 215 210
4.04504043360541 2.25317445893375 -0.352407103431285 0.08430619 0.8595779 0.5040023 189 190 182
4.04554124881256 2.31169110281642 -0.342768051166981 0.6513734 -0.5808193 -0.4882228 160 154 142
4.05320559537747 2.26881172812416 -0.387332382946556 0.3208626 0.612338 0.7225575 192 192 182
4.03324829357127 2.27623035332783 -0.385387632354302 -0.1915197 0.5655298 0.8021822 196 195 189
4.00576628446962 2.28420292864181 -0.356580323739646 0.7616386 -0.6472672 0.03085325 184 181 174
4.07570185344014 2.27600956121379 -0.372121189607466 -0.7669346 0.4254031 0.4804618 193 190 182
4.08384083213392 2.27684860999014 -0.361055935219514 -0.9334816 -0.1685861 0.3165295 215 213 208
4.02500848616383 2.29805071087346 -0.375519910657323 0.5413656 -0.5399491 0.6444985 223 185 210
4.03550090391398 2.30806477485146 -0.364079292061172 0.3313332 -0.8980173 0.2894534 214 176 201
4.02436585521775 2.30365772745543 -0.35887933288001 0.5460752 -0.8318177 -0.09940465 188 181 173
4.04966056342425 2.25994878532164 -0.360669081633661 0.06314432 0.6844538 0.7263166 182 180 171
4.02811370882405 2.26050858568786 -0.356543217785687 -0.2560573 0.9482327 0.1878549 172 175 165
4.01705995341472 2.28593974724779 -0.37753755912163 0.9196127 -0.05642805 0.3887523 191 191 186
4.04338160935864 2.30783988382527 -0.380020691963133 0.4700542 -0.756551 0.4546202 186 182 175
4.08252930609152 2.26853078878995 -0.353388946474125 -0.6677344 0.7394978 -0.08528565 180 180 166
4.06672931073933 2.25663842948262 -0.339483328202988 -0.5554329 0.812168 0.1785425 184 169 173
4.02711397223825 2.30544903516217 -0.367235398272648 0.4625588 -0.8795642 0.1113838 177 171 167
4.03714753357403 2.28470743327718 -0.386406786137828 -0.05945589 0.2036179 0.9772434 191 189 175
4.06181825386259 2.26124307094517 -0.366590585670017 0.2229849 0.7858505 0.5768161 189 189 184
4.07077841239664 2.30861442941986 -0.349192967869958 -0.8859507 -0.4322478 0.1680868 205 202 196
4.03106757700718 2.24882667545523 -0.333121379322708 0.008387355 0.89145 -0.4530415 148 152 139
4.05720413081279 2.25384113698504 -0.335928620583629 0.1521226 0.8458303 0.5113022 168 169 163
4.08506736123964 2.27199262709422 -0.3580465218773 -0.8592337 0.4194572 0.2928705 188 185 175
4.03038993392526 2.27346942157212 -0.379555540009856 0.4206663 0.7852371 0.4543594 188 187 180
4.07359356648395 2.26881911613857 -0.367728064130925 -0.618356 0.5193381 0.5898507 173 174 162
4.01622455295945 2.28349125597922 -0.373179861400694 0.8199927 0.4090933 0.4003182 189 186 178
4.04989483964413 2.30077788790187 -0.383803973916341 -0.1534071 -0.1888043 0.9699584 219 215 211
4.07151427477319 2.27001456013526 -0.341056719341011 -0.6438166 0.5412529 -0.5408747 206 158 194
4.0461379005359 2.31254031455666 -0.363306319705526 0.448286 -0.8326963 0.3250485 191 187 177
4.0506695504508 2.25949960917899 -0.36034304500481 0.1352175 0.6439487 0.7530248 187 185 178
4.03686097597152 2.26804995908819 -0.373854062817826 0.2417154 0.8643517 0.4409873 191 190 183
4.04954171223981 2.26299178365499 -0.364663028755693 -0.08646598 0.8225054 0.5621464 186 185 179
4.04346204299058 2.25534199510619 -0.355003165131814 0.3937417 0.7355087 0.5513569 190 188 181
4.04389379757579 2.3090217485805 -0.340813061154776 0.5857703 -0.6482461 -0.4864671 172 166 155
4.00242048702833 2.27067959834844 -0.351656719556971 0.97559 0.1961689 -0.09870131 191 189 179
4.06702029441979 2.30604051614808 -0.371212312050019 -0.7026623 -0.6007812 0.3812185 209 207 202
4.06982406373983 2.3080056448562 -0.361304479907023 -0.9609988 -0.1236732 0.2473587 205 204 198
4.07964019551051 2.28768093728806 -0.344790635699676 -0.8422117 -0.5349215 0.06736743 200 197 190
4.03779590002215 2.3077214167707 -0.36752759712746 0.2204298 -0.9136719 0.3414883 206 169 192
4.05767993981516 2.25849893989358 -0.350874735312129 -0.4292624 0.8443398 -0.3206619 170 170 162
4.07165075748033 2.29957205709357 -0.354979849491625 -0.8858789 -0.1241684 0.4469907 211 208 202
4.0259874730325 2.30543378563346 -0.349575507231821 0.7888179 -0.6119547 0.05725054 189 179 179
4.05460029527875 2.26639050855704 -0.378038506564521 0.28283 0.9581926 0.04328998 178 178 171
4.01828260094421 2.25995187112388 -0.35781236403002 0.1995396 0.588972 0.7831321 200 199 194
4.02860149072475 2.29613150436106 -0.379182750549205 0.3725084 -0.4797134 0.794426 200 187 190
4.08572832651837 2.27223179176038 -0.349966081683842 -0.8827611 0.1385574 -0.4489263 172 171 156
4.08399186608698 2.28006927301246 -0.358003447278679 -0.9546304 -0.2931991 0.0521073 209 207 201
4.06609746086178 2.27736903763796 -0.384937872128752 -0.6266606 0.1729761 0.7598525 199 198 189
4.04891506292812 2.2668054500922 -0.37921830677358 -0.001624144 0.9956966 0.09265882 184 185 177
4.02112534720197 2.26634901308296 -0.362039387283674 0.3897639 0.6770484 0.6242512 194 194 191
4.08173460891164 2.2673202774183 -0.355125034082901 -0.6043686 0.7914809 0.09108555 174 172 161
4.05950941420981 2.2580677582579 -0.35226179539843 -0.4094883 0.8346392 -0.3683705 173 172 164
4.03212838854129 2.27511890272083 -0.385369720410042 0.1178965 0.755043 0.6449887 198 197 192
4.07063508722962 2.31141206700388 -0.344623929292665 -0.9143971 -0.3225274 0.2446508 206 204 197
4.00970907602033 2.2853429982788 -0.366144536464469 0.8563804 -0.187346 0.4811592 188 186 180
4.08251475063157 2.28534836965525 -0.362427955453212 -0.8775134 -0.4682361 0.1035626 207 205 201
4.00887662473908 2.28668284685851 -0.356385686221546 0.6494305 -0.7601379 0.02074903 179 176 165
4.00440392686504 2.2632365060708 -0.351509845700924 0.9409174 0.3384785 0.01032834 186 185 179
4.01827204412923 2.27997181838515 -0.374129347527615 0.7348413 0.6409779 0.2217104 184 184 174
4.03456630005085 2.24958977802682 -0.33167740518102 -0.1582613 0.8456921 -0.5096648 141 147 135
4.07073194073861 2.26131442871382 -0.351088935964552 -0.05404904 0.9551189 0.2912499 171 174 162
4.06506557872696 2.31628463762979 -0.370609550369022 -0.4219246 -0.629408 0.6525528 211 209 203
4.07041377060613 2.2903173217201 -0.376912258292584 -0.7105646 -0.4482187 0.5424001 211 209 203
4.04727094715664 2.31109098537913 -0.372445770202976 0.5067556 -0.84394 0.1759661 179 176 166
4.02017038501571 2.29669893008549 -0.372161860727348 0.6856411 -0.5925374 0.4228425 222 184 211
4.04928118349488 2.26700406856855 -0.381164455033417 0.1808538 0.9367222 0.2997391 188 188 175
4.06698242314158 2.31418360206908 -0.356588977808368 -0.7061337 -0.7000023 0.1066393 206 204 197
4.01491254536329 2.28981121938846 -0.336798513045977 0.9537162 -0.09627511 -0.2848799 177 174 164
4.00356335252337 2.28048366809259 -0.361485172268141 0.7501718 -0.2972098 0.5906848 193 190 184
4.05115463262592 2.30414505199644 -0.383056719419607 -0.1449673 -0.313183 0.9385632 218 214 210
4.07167884704963 2.26506725357635 -0.34631897308099 -0.6713251 0.5847679 -0.4553778 188 158 175
4.01601757451171 2.29351488708943 -0.367920353976244 0.7841892 -0.5877194 0.199081 184 183 177
4.05006269298622 2.26583105430202 -0.37146781774919 -0.1317192 0.9047745 0.4050101 183 184 174
4.02392118195958 2.29097058232897 -0.381421376678933 0.3688 -0.5649499 0.7381181 192 189 182
4.00568010130403 2.25714024076181 -0.34231182800414 0.6820356 0.7271127 -0.07832418 180 179 170
4.0106818016845 2.26085696602123 -0.356458811370474 -0.02059599 0.5606115 0.8278228 195 195 188
4.07788369996789 2.28776711197296 -0.345941783839692 -0.8325151 -0.5419055 0.1151387 207 204 197
4.07326927780586 2.27786777235346 -0.377529568013261 -0.7061286 0.34982 0.6156366 190 189 178
4.00479680090314 2.27877783806513 -0.35004780702461 0.8148234 -0.4041192 -0.4156327 178 176 166
4.01072505291044 2.25553424276949 -0.349653323552005 0.6695027 0.7073302 0.2268261 188 187 181
4.03283631620533 2.26445001922314 -0.365269472571519 0.1388406 0.8956837 0.4224618 185 186 181
4.06822434272238 2.31439665087752 -0.351910954415484 -0.7830781 -0.5881076 0.2022821 205 203 197
4.04340409921554 2.27254780271722 -0.382953253921405 0.3943577 0.3526131 0.8486142 191 189 179
4.07319954854293 2.30602548385104 -0.346921763592099 -0.82502 -0.5264872 0.2053124 202 201 195
4.04964357530913 2.32041981731119 -0.352618528978183 0.2403017 -0.8695231 0.4314912 195 192 185
4.04463710008933 2.28934437409117 -0.38900065590906 0.07317302 0.04375796 0.9963589 191 189 181
4.00259889146827 2.27917483205294 -0.354892394068831 0.9132862 -0.3907827 -0.1148786 182 180 170
4.04133373367934 2.31480450281741 -0.354538284750343 0.4300931 -0.8231022 0.3708405 185 178 168
4.01553992001634 2.29544869267737 -0.334557002051838 0.8909715 -0.3432078 -0.2972848 185 183 179
4.06629400317328 2.29955314007625 -0.38025325325935 -0.8660373 -0.2339711 0.4418561 214 212 207
4.06987654491125 2.30941776443764 -0.363385505456035 -0.8836629 -0.3211916 0.3405522 206 205 200
4.04989186058177 2.26215828424795 -0.363432752716559 -0.09441216 0.7828404 0.615018 181 180 173
4.02716415927894 2.26111440387676 -0.359400751469634 -0.2203244 0.8201939 0.5279576 188 188 181
4.05687621378923 2.32295296144071 -0.345744308585024 -0.156919 -0.9322619 0.325982 198 198 191
4.0043048849188 2.26127349161236 -0.344780417683057 0.9327688 0.359742 -0.02297823 192 191 186
4.074235997291 2.28939250220372 -0.372048372221651 -0.6675471 -0.6545745 0.3548424 207 205 199
4.04862910917497 2.2576611703726 -0.359219772601386 0.1934317 0.7469918 0.6360719 192 190 185
4.02961717143098 2.29529246255484 -0.380067373807979 0.3645669 -0.4946629 0.7889231 216 187 203
4.06243035626131 2.31735400525346 -0.349888508989795 -0.3169835 -0.8177705 0.4803882 199 199 192
4.04294617734928 2.25227971888899 -0.33814100555589 -0.6019605 0.7153784 -0.354792 150 154 143
4.08193243800214 2.28571774033064 -0.364590380377241 -0.8994169 -0.3697784 0.233052 204 201 195
4.06390225745894 2.26464690069698 -0.379462229785256 -0.1395915 0.9473765 0.2880833 185 187 174
4.01833755183334 2.26185214227859 -0.35821200015234 0.293649 0.4664035 0.8344088 196 193 187
4.02921686838307 2.25354036381984 -0.348442296054219 -0.1510591 0.6751031 0.7220921 188 188 177
4.01887409873008 2.2989510499252 -0.362103829762183 0.8181688 -0.5749419 -0.006453876 181 180 174
4.05780502838495 2.31832654701552 -0.366459000002066 -0.1996149 -0.8898494 0.4102705 208 206 201
4.01645598435222 2.2940787682805 -0.363516408018509 0.846187 -0.5328572 -0.005546949 180 179 169
4.08153683790329 2.27020465827776 -0.350070045749631 -0.627522 0.5963094 -0.5006309 169 169 157
4.02614574455339 2.27738009109092 -0.382667996277001 0.4716998 0.7620594 0.4435817 185 184 173
4.02635079394735 2.27819236930565 -0.383803760048607 0.5048187 0.6817612 0.5294899 192 191 183
4.03920936505571 2.251918343521 -0.333471985243093 -0.445071 0.7905896 -0.420571 137 144 129
4.03353799627053 2.26664050004337 -0.371154238125085 0.171862 0.8776423 0.4474453 186 188 178
4.01332014174495 2.28112553634165 -0.368301814993777 0.4539721 0.579238 0.6770471 178 179 168
4.06362309790784 2.3051384643359 -0.378323917500879 -0.6470451 -0.5917574 0.4807868 214 212 208
4.03136001969288 2.29326168614137 -0.381472559826753 0.4012469 -0.5407019 0.7393526 217 186 201
4.07070565728729 2.30367819137785 -0.369319533427165 -0.839754 -0.4553846 0.2956991 209 206 200
4.04245245333002 2.30761944454488 -0.339639262774078 0.4002606 -0.7910324 -0.4626653 158 154 136
4.00452497109634 2.28172446432035 -0.354421742821705 0.8200359 -0.5329198 -0.2086568 180 179 168
4.03009467813654 2.24692620742655 -0.334633561720783 0.2083465 0.9494891 -0.2346537 166 168 161
4.07971140996391 2.27500968440694 -0.34372701655867 -0.6496421 0.4307953 -0.6264029 184 165 171
4.08450076037174 2.27348188966164 -0.362675774731825 -0.7910469 0.2962658 0.5352302 210 207 204
4.04396689658388 2.31277162184212 -0.359696354834323 0.3238997 -0.8484886 0.4185166 182 176 165
4.06069650297104 2.31712865507829 -0.365750466681148 -0.365686 -0.7973655 0.4800854 206 204 198
4.02185671345444 2.25120369518794 -0.346129165614669 -0.5140123 0.8212141 0.2477877 156 161 147
4.06527599275342 2.2954743624759 -0.380441068276536 -0.7500103 -0.001272833 0.661425 217 214 210
4.08173063768179 2.27225581116297 -0.347342118085936 -0.7197403 0.3572365 -0.5952781 177 177 168
4.02159915495738 2.26463851356329 -0.361198037910869 0.3615963 0.5883508 0.7232506 192 191 185
4.01558202915141 2.27689273469729 -0.367316562325206 0.5532061 0.188545 0.811427 190 190 184
4.07836868119336 2.26643076117782 -0.357094869867623 -0.4886294 0.8376682 0.2440353 187 189 186
4.05088766219323 2.27398153943946 -0.387787850468314 0.5205308 0.04583683 0.8526117 200 196 190
4.04001585936363 2.29038253453233 -0.38687235092664 0.2836709 -0.1395218 0.9487173 197 194 188
4.03544966372454 2.2472387155657 -0.340752850768562 0.1349467 0.9602711 0.2442719 175 176 170
4.0647583134543 2.2765654259145 -0.386033178371589 -0.6370196 0.1363711 0.758689 216 214 208
4.06471446646687 2.26588060054704 -0.380254863150006 -0.3786974 0.862241 0.3363463 189 188 178
4.0046533115742 2.26430837825064 -0.357674074606113 0.6914736 0.5078515 0.5137617 195 192 185
4.03786885588013 2.29624752871724 -0.384377065165297 0.3574993 -0.4454975 0.8208083 193 191 184
4.08160396631881 2.28194191785851 -0.348182193334082 -0.9639782 -0.2609459 -0.05150943 205 202 196
4.07003619770941 2.3106094403142 -0.359687090327428 -0.8978443 -0.40851 0.1643024 207 206 199
4.0474505666417 2.25633520644398 -0.335219670349797 -0.3071405 0.950445 -0.0481565 168 171 158
4.01540600771943 2.28988576467529 -0.371269876091578 0.8225502 -0.3535568 0.4454309 187 186 178
4.06977908454227 2.26757683288337 -0.342151173621877 -0.7673214 0.3667738 -0.5260178 194 155 180
4.0302262615008 2.24803160585 -0.333802996455337 0.2039049 0.9318315 -0.3001882 156 158 149
4.01226522025843 2.25431082081038 -0.340023094145818 0.7303694 0.6594141 -0.1781393 187 188 182
4.03379645203081 2.30228324761225 -0.378644085704114 0.4750695 -0.5187011 0.7108152 230 188 216
4.01711366060186 2.28743015066924 -0.377814849530243 0.8503132 -0.2380155 0.4693783 187 187 184
4.01768912179226 2.2656443535259 -0.35989158287545 0.1657815 0.6455783 0.7454832 189 188 182
4.00790170850694 2.28611626093413 -0.359203826377119 0.7186933 -0.6759883 0.1628492 188 185 179
4.03148981665523 2.27451720476944 -0.384417034464068 0.2182465 0.8184696 0.5314846 194 194 185
4.05198786974325 2.25723653094991 -0.339665169526494 -0.09035482 0.9612364 0.2605008 172 175 162
4.00558842458302 2.269497010603 -0.341052894256251 0.84746 -0.2227599 -0.4818605 178 176 169
4.06775046792031 2.25808560056527 -0.342355249322172 -0.4845382 0.8055581 0.3410261 193 179 182
4.01704918971643 2.26110131842949 -0.357587904149822 0.270749 0.4659805 0.8423522 184 184 174
4.07107686191234 2.30083832221208 -0.356231268237545 -0.8867669 -0.03679737 0.4607499 210 207 200
4.04966036916792 2.29484835879571 -0.385431443080985 -0.2562732 -0.1672983 0.9520164 203 200 195
4.03887392070949 2.29431099507712 -0.385586508043072 0.3117744 -0.3938852 0.8646683 197 194 187
4.08217072657455 2.28190846328491 -0.363100276496064 -0.9551024 -0.1441316 0.258854 209 206 201
4.02159688107006 2.30111963360867 -0.368860259868303 0.7070941 -0.6355669 0.3099558 200 189 192
4.05749959654655 2.25726548462689 -0.362456924140429 0.06321294 0.8011082 0.5951721 196 194 191
4.0226032348046 2.27552143180693 -0.376474467474664 0.6154081 0.7086104 0.3451727 187 186 179
4.03956028950372 2.29778643835098 -0.383599561675541 0.3118286 -0.4743581 0.8232541 194 191 185
4.01288049757942 2.26306035822063 -0.357630450494607 0.02528322 0.5854741 0.8102968 192 191 186
4.08472510448431 2.26964066650627 -0.353736432975088 -0.8191475 0.5597349 -0.1252764 178 178 162
4.0233160507687 2.26434530681758 -0.363071800282863 0.3338484 0.7190962 0.6094636 182 184 172
4.06663087113294 2.25754429763937 -0.338854681235164 -0.6012592 0.7883698 0.1302318 212 188 201
4.00735243180326 2.25710351204912 -0.349385425281507 0.6046929 0.79233 0.08099235 188 187 182
4.02316018864021 2.25323086451999 -0.342652078729306 -0.5028218 0.8525521 0.1425667 164 167 152
4.03438642512478 2.31076016992505 -0.350911729453743 0.4114385 -0.9093699 0.06135709 178 170 163
4.06826467373832 2.2850739855495 -0.382131905527085 -0.474902 -0.3283575 0.8164861 218 216 210
4.06137198918871 2.26466074871008 -0.380510709939966 0.03448813 0.9869387 0.1573612 181 181 171
4.02806615750181 2.27659577786595 -0.384644846876968 0.4965528 0.6860616 0.5317469 193 192 185
4.03687114485959 2.28221552095453 -0.385726789284169 -0.1498118 0.3075599 0.9396613 194 192 180
4.07313862144659 2.2637151926464 -0.365597825595504 -0.7815051 0.5734134 0.2458594 185 186 176
4.06931027761523 2.26195919387008 -0.356997998784428 -0.498761 0.8582057 -0.1213275 172 173 163
4.06400236019525 2.31795261890724 -0.349176606656305 -0.3115173 -0.7870997 0.5323824 202 201 194
4.01373430888114 2.28232252527131 -0.336165171969631 0.9229143 -0.09601741 -0.3728403 171 171 158
4.02705663082238 2.27073072747425 -0.374793937419729 0.4740202 0.711778 0.5183406 186 185 177
4.0650446641263 2.31500044915863 -0.366040502640172 -0.604677 -0.6454747 0.4666135 212 208 203
4.02474758621557 2.2837820203528 -0.386030312742989 0.6030244 -0.03013147 0.7971535 195 193 186
4.06527154873859 2.31373899888932 -0.365237862279472 -0.6739268 -0.5486768 0.4947488 212 209 204
4.04050150123733 2.25839059326438 -0.35451925190027 0.525506 0.7185385 0.4555722 192 193 187
4.06267302501209 2.25598893316536 -0.341617325698357 -0.07078796 0.8595452 0.5061334 172 172 160
4.03034726334909 2.27214255648074 -0.378743511913485 0.3802805 0.7707065 0.5112712 183 184 172
4.07402629173298 2.3013274878477 -0.350877555478433 -0.9615198 -0.1107002 0.2514461 204 202 196
4.07012985016489 2.28395832063545 -0.379127478932579 -0.7081533 -0.2198349 0.6709631 213 211 206
4.02158070198985 2.30125522021982 -0.358123997769203 0.7541916 -0.6339166 -0.1713031 173 170 156
4.06674682339926 2.31445646435991 -0.356177711657014 -0.7120087 -0.6876075 0.1422657 206 205 198
4.08324261576462 2.28317360012603 -0.360746200937086 -0.9740953 -0.1973438 0.1104252 212 211 204
4.05805424372288 2.3214294531701 -0.345359423779479 -0.188431 -0.8912581 0.4124959 199 198 191
4.02668549286033 2.30670772021092 -0.346352171050653 0.7950328 -0.6002829 -0.08708208 176 173 161
4.02209678230211 2.2495787293387 -0.334553839510835 0.1042773 0.9945482 -0.0001422189 173 175 168
4.02963485251143 2.27167492292108 -0.376932863170436 0.4073447 0.7400455 0.5351663 185 186 175
4.03824280285311 2.26088226327726 -0.359374708451944 0.3043129 0.8929603 0.331686 175 176 166
4.00841872615012 2.27692150610364 -0.363575582902977 0.4068292 0.03642796 0.9127777 197 196 191
4.00481730586023 2.25943997670102 -0.34478992291597 0.8407183 0.5412605 -0.01516374 188 186 179
4.01511666311593 2.27877225715886 -0.336224469317209 0.8725519 -0.2581647 -0.414734 166 166 151
4.05268540636752 2.29765898945146 -0.384231813947408 -0.1017837 -0.07408603 0.992044 207 203 197
4.00501701606326 2.2800329722463 -0.351963295696664 0.8209506 -0.4965004 -0.282006 178 176 165
4.0199541053655 2.29991676673743 -0.346775659478343 0.6708382 -0.6999367 0.2450809 182 178 169
4.05819850572934 2.26354607991002 -0.367405051998916 0.2431238 0.8324277 0.4979507 179 180 166
4.05461755099272 2.32114038799506 -0.352365907452474 -0.2024396 -0.9164025 0.3452893 184 181 168
4.07352753019773 2.26991249323187 -0.343291508153894 -0.5815706 0.6177398 -0.5293139 205 159 191
4.06145966146395 2.31851919806728 -0.36160160758026 -0.3506343 -0.9346381 0.05922136 201 200 194
4.00984245451005 2.27491833565333 -0.341461759071797 0.7719045 -0.394757 -0.4983276 176 174 162
4.07577295838829 2.29472871740472 -0.349087876419133 -0.9364882 -0.3131126 0.157957 204 201 194
4.06683033654388 2.27540608827337 -0.383632151768909 -0.691966 0.3109965 0.6515092 194 193 183
4.02470631078623 2.25897574763433 -0.349717291126454 -0.2251519 0.7125483 0.664516 180 180 169
4.05995657671634 2.28542491349416 -0.38372151447732 -0.1551123 -0.4498881 0.8795117 218 215 209
4.01575463006817 2.28851837500446 -0.334648167097002 0.9313573 -0.0790929 -0.3554123 169 168 150
4.03881847555545 2.27920368270369 -0.383730716670246 0.002294741 0.3740372 0.9274109 192 189 178
4.05647375246606 2.25634992930069 -0.358161397285834 -0.1971291 0.9343381 0.2969047 169 173 162
4.06091892562449 2.25684483874446 -0.341270179872909 0.02171156 0.85591 0.5166687 181 182 170
4.04670169633528 2.30930129785849 -0.380457740000684 0.3026178 -0.793318 0.5282699 191 187 182
4.02275390685621 2.26245858981693 -0.359954080983127 0.1875239 0.5742718 0.7968982 192 192 184
4.04920557756457 2.25625493637534 -0.356980390139608 0.2602757 0.8145041 0.5184974 176 178 170
4.04780233325084 2.26598738391686 -0.373198106822344 -0.1740013 0.9285685 0.3278475 183 185 176
4.07064956512745 2.3033055990208 -0.357003169378199 -0.9345255 0.02288949 0.3551593 206 204 196
4.04508512139435 2.31043544765544 -0.366444281735543 0.4753363 -0.8514891 0.2214087 204 165 188
4.02193883588442 2.25021425934781 -0.34309742580926 -0.6124043 0.7763346 0.1492162 165 170 161
4.07794894630566 2.27082967049173 -0.367280026756992 -0.6366791 0.3541789 0.6849796 184 184 174
4.01586874857333 2.27906087723713 -0.366954231005215 0.5339365 0.3893137 0.7505642 186 185 176
4.07538223825672 2.29733455323348 -0.346884640692878 -0.9750892 -0.1993811 0.09720182 202 200 194
4.03789772453968 2.28911509810567 -0.386920032265748 0.1930924 -0.1208382 0.9737112 195 193 186
4.00827841075587 2.25752175420779 -0.346660435082811 0.648157 0.7587252 0.06502747 186 186 181
4.0503930632115 2.32236273384769 -0.349964190206401 0.2037264 -0.9516434 0.2299356 185 182 172
4.05392991700271 2.25484722578138 -0.358972828379428 0.04922502 0.8398142 0.5406376 182 183 176
4.06369369100325 2.30720830347274 -0.37601332122586 -0.6138907 -0.6848049 0.3926581 209 207 201
4.05987972622552 2.28240225638283 -0.385781771144941 -0.1271492 -0.5066915 0.8526997 194 191 184
4.05004252078776 2.31460880444791 -0.362195819515024 0.5389633 -0.7952223 0.2777412 172 171 154
4.06655337211046 2.30998797449479 -0.367372648163362 -0.7220695 -0.469492 0.5081269 212 210 204
4.03388887980836 2.24833287438669 -0.339953538373868 0.4026728 0.8396121 0.3645629 182 182 179
4.0512511293991 2.26150479754451 -0.36295676323423 0.07735544 0.7255341 0.6838248 184 184 177
4.06120117795614 2.3095578016751 -0.371439480129422 -0.5392048 -0.687883 0.4858758 214 211 206
4.05411665566426 2.29626646109515 -0.384259165702156 -0.08168691 0.01596952 0.9965301 194 190 184
4.07765598269923 2.2736243596891 -0.342886928338197 -0.5515631 0.5431994 -0.6330186 189 158 175
4.01493657739921 2.29093131484449 -0.349378717209781 0.7048086 -0.7036445 0.09016237 177 175 162
4.03233010774742 2.26675252069258 -0.369677657285906 0.1732776 0.8758857 0.4503321 184 185 175
4.06043001300967 2.3027501691478 -0.382802338818045 -0.2834166 -0.434513 0.8549113 219 216 211
4.03940738315009 2.26757006314678 -0.374422851279042 0.2651304 0.9040522 0.3352544 187 186 178
4.06493091144273 2.320561503541 -0.347148311274141 -0.2361773 -0.6632883 0.7101189 205 203 197
4.04682516536185 2.30106064228783 -0.384856653209329 0.046245 -0.2583888 0.9649335 200 197 192
4.02534490466367 2.2604249426336 -0.358754513553001 -0.1583626 0.8891451 0.4293509 184 184 178
4.04774700717866 2.25185185767989 -0.34790000057941 -0.3764506 0.9201152 0.108041 184 184 175
4.01640682921345 2.29391847116468 -0.361575332030566 0.8329076 -0.5440549 -0.1013375 183 181 174
4.06971302169992 2.31072657645198 -0.361336096345998 -0.8748235 -0.4371708 0.2087233 207 205 199
4.04556285517327 2.26797760569929 -0.382043982520603 0.3407026 0.6393074 0.6893532 198 195 190
4.00674784810023 2.25783115947504 -0.34797420225408 0.6793614 0.7297083 0.07742018 187 187 182
4.04199947366846 2.30698766741264 -0.377750346832101 0.4408799 -0.8542216 0.2755547 190 180 176
4.06772549217474 2.31199413405157 -0.358512763829636 -0.8304181 -0.5536372 0.06238307 209 207 200
4.01201182744202 2.27592524055437 -0.363910314677724 0.4571739 0.02226293 0.8890986 189 189 180
4.04337494289511 2.30817598925331 -0.378192667928786 0.4969408 -0.8129131 0.303681 185 180 173
4.02678661854855 2.26611133770554 -0.365955419921627 0.1685362 0.8682125 0.4666933 186 187 180
4.07445137578156 2.29965926754152 -0.350414786081507 -0.9727185 -0.125304 0.1952372 205 203 196
4.07202027476341 2.28964478496289 -0.375867994217866 -0.6958 -0.4610016 0.550763 213 210 204
4.0386838588987 2.31238109485917 -0.348378758303451 0.5365611 -0.7982211 -0.273761 170 166 156
4.02715515663943 2.30457502032309 -0.370648874717518 0.5175392 -0.8032789 0.2947815 171 170 164
4.03917875405675 2.26456908750365 -0.3663268192845 0.1017257 0.9265085 0.3622621 196 197 190
4.03938569709469 2.30692858896921 -0.37370262571743 0.2860823 -0.9462193 0.1510826 188 177 176
4.03242401600217 2.25092516531657 -0.34092634863949 0.5772294 0.6915141 0.4342975 182 183 179
4.04674704101137 2.25595134178681 -0.357614438419075 0.2081282 0.8156262 0.5398487 183 182 171
4.04388501181289 2.31805156589734 -0.351241357304774 0.59745 -0.8018266 0.0113019 178 176 163
4.06585747873411 2.31968533784873 -0.347689632765649 -0.3743338 -0.625946 0.6841533 207 205 200
4.08416061909545 2.271061810286 -0.359727392164478 -0.7647461 0.5310153 0.3649469 192 190 179
4.01154566401783 2.27985783630472 -0.36552003678701 0.4802006 0.3934704 0.7839569 188 187 178
4.02705823776287 2.28457479285561 -0.387094884126944 0.3741708 -0.2099188 0.9032886 191 190 184
4.03030938015113 2.2554988193414 -0.347834743353146 -0.214397 0.6652703 0.7151569 180 182 173
4.07111444791394 2.30578371163219 -0.359186515232792 -0.9915883 0.04536486 0.1212217 202 200 194
4.04041936332245 2.29009375729024 -0.387642987343569 0.2739847 -0.1002789 0.9564918 198 194 188
4.03559743771627 2.27602635957741 -0.384253256259156 -0.2918922 0.5577841 0.7769657 195 192 184
4.02591969479607 2.25297691858694 -0.340543475419963 -0.2146231 0.9097694 0.3553259 157 161 146
4.02366608177516 2.26386924584989 -0.362038093046398 0.251199 0.6634277 0.704814 188 187 180
4.02744046919246 2.24883837189682 -0.335847711956767 0.08121663 0.8361101 0.5425161 173 174 166
4.02892179117899 2.25911999019361 -0.350434339973687 -0.1160965 0.724236 0.6797086 184 185 175
4.04767146323466 2.26411286718722 -0.370478847464143 -0.1102902 0.9296817 0.3514654 203 203 202
4.01468668342606 2.27285158379952 -0.366827870850643 0.3860967 0.2833978 0.8778468 190 190 182
4.04228912096562 2.25300257744072 -0.334840952605096 -0.5286037 0.7738299 -0.3489489 150 153 138
4.05130989892619 2.32237665418116 -0.349262790589643 0.146809 -0.9641561 0.2210205 182 180 168
4.01386717445883 2.2912397145944 -0.344990467773611 0.8770324 -0.4724306 0.08731282 182 180 167
4.00967172473587 2.27081860075015 -0.335925440006825 0.7612879 -0.2923326 -0.5787765 178 177 173
4.08286773274548 2.28306162209197 -0.36237449520986 -0.9638442 -0.1911346 0.1856661 211 210 204
4.04602155360855 2.25096873369648 -0.345334805196696 -0.4684963 0.8751265 -0.1210987 176 177 166
4.00793671809909 2.28499838432703 -0.361837489687641 0.8437526 -0.4066663 0.3502915 190 188 180
4.01317541233237 2.28980529605357 -0.355855308651378 0.609144 -0.792943 -0.01360047 179 178 165
4.05376689237805 2.25772729634586 -0.340695566265773 -0.01432788 0.9524641 0.3043137 172 175 163
4.05788907015031 2.25651414946061 -0.360710335431593 -0.06989813 0.8889237 0.4526907 186 183 177
4.01397294839502 2.26708934520084 -0.362154087245192 -0.07912678 0.7749716 0.6270232 195 193 188
4.04622496468836 2.2582731669315 -0.359660684205587 0.05931591 0.8435258 0.5338032 183 180 174
4.04566141134501 2.2798709404533 -0.386364756386006 0.2710053 0.3146065 0.9097136 190 189 177
4.05886099995346 2.31213400522497 -0.374649058992039 -0.4605123 -0.7515854 0.4722794 209 207 201
4.03711946312362 2.26064168180524 -0.356922687359896 0.3489682 0.9100044 0.2238598 181 181 172
