ply
format ascii 1.0
comment File exported by Rhinoceros Version 7.0
element vertex 497
property float x
property float y
property float z
property float nx
property float ny
property float nz
property uchar red
property uchar green
property uchar blue
end_header
4.25019488351972 2.33063764067211 -0.36536505818367 0.0369985 -0.7230384 0.6898164 190 190 186
4.20424923914106 2.34566373320141 -0.361651182174683 -0.84253 -0.4776049 0.2490716 174 176 165
4.28684464710386 2.38367015810528 -0.381043523550034 0.9215183 -0.3423264 0.1833483 178 178 169
4.26985410469205 2.38279540033856 -0.350843042135239 0.8579417 -0.2088401 0.4693845 169 171 166
4.20840052383573 2.39004535170117 -0.365446627140045 -0.1531675 0.9877079 -0.0311899 179 179 171
4.2563773156944 2.39060873480358 -0.357448041439056 0.1453231 0.9888901 0.0312661 151 157 146
4.27979490774305 2.39481181593456 -0.383667707443237 0.3210002 0.9431778 -0.08587437 158 160 145
4.23489449041517 2.35324723215618 -0.355735629796982 -0.086958 -0.5420458 0.8358377 185 183 171
4.2666517259422 2.35898489447155 -0.361339837312698 0.3741673 -0.08463392 0.9234912 192 194 192
4.25357524173887 2.3911868998579 -0.335364758968353 0.3677477 0.7929318 0.4858198 131 139 135
4.26396081464917 2.35678321810284 -0.382400095462799 0.9346273 -0.2979778 -0.1941161 160 162 151
4.26058051603467 2.38733953924694 -0.33827805519104 0.4987987 0.3454345 0.7949055 146 149 136
4.21039990204007 2.3595376679472 -0.353219449520111 -0.05533085 -0.5425299 0.8382123 193 193 188
4.21439019458921 2.3889896342329 -0.375599443912506 -0.2741527 0.9198139 -0.2806824 152 155 133
4.21963862198026 2.39501196833172 -0.368367344141006 -0.4415571 0.7481701 -0.4952462 161 164 144
4.25856945531995 2.38368279428997 -0.337601363658905 0.4889247 -0.05132902 0.8708146 151 154 145
4.27067694681318 2.38919646235027 -0.34929746389389 0.5701057 0.5149541 0.6401576 184 185 173
4.27442047613294 2.38995630236187 -0.359086275100708 0.4219115 0.3548043 0.8343288 180 183 172
4.2521185638252 2.35697228403607 -0.355346441268921 0.7238043 0.3412956 0.5996871 165 166 156
4.25793406980664 2.39554566832104 -0.378107994794846 -0.3244785 0.9252673 -0.1964536 148 148 125
4.20186231153638 2.36111981363812 -0.355424284934998 -0.4748366 0.235185 0.8480673 183 184 179
4.27065471428067 2.35773951502361 -0.362718641757965 0.7385281 -0.3040226 0.6017861 190 191 189
4.22840074318082 2.38934845419445 -0.377811461687088 -0.09079076 0.925408 -0.3679362 156 158 138
4.2042715312782 2.38902968855419 -0.365720897912979 -0.2866606 0.9568931 -0.0467032 173 178 172
4.26407197731168 2.35133475752392 -0.375839620828629 0.8680941 -0.3562936 -0.3456407 166 169 160
4.23720738905103 2.33065254183331 -0.368856579065323 0.1291772 -0.6807289 0.7210557 184 184 177
4.24506512897641 2.39180952997723 -0.379427492618561 -0.1511873 0.9427772 -0.2971759 143 147 122
4.25573239343793 2.36287672014752 -0.345616906881332 0.372382 -0.7690032 0.5195822 149 149 137
4.25566569584043 2.34581942053356 -0.356447279453278 0.130503 -0.3300328 0.9349049 197 196 193
4.21052066105039 2.35262460203686 -0.356691896915436 -0.2639891 -0.07455175 0.9616402 242 178 222
4.2260879041496 2.39716917963543 -0.365387320518494 0.2100108 0.945829 -0.2475941 168 170 155
4.26767472046048 2.38524908514538 -0.34134703874588 0.8552175 0.1567149 0.4940076 182 183 181
4.27643684166105 2.3976510235838 -0.360820919275284 0.3638203 0.3236447 0.8734351 186 187 180
4.25777838247449 2.33670145960369 -0.362518489360809 0.4372459 -0.6029045 0.6673246 191 191 186
4.27790460603864 2.37223929853954 -0.380910098552704 0.8140409 -0.5703996 0.1094606 187 187 182
4.26871744411618 2.39350957365551 -0.355641722679138 0.1919839 0.8750966 0.4442388 175 177 166
4.2242643000427 2.36506361456432 -0.347522050142288 -0.2254631 -0.1280265 0.9658031 222 177 206
4.21510187404782 2.37544173689404 -0.352933526039124 -0.3237147 0.3979163 0.8584121 165 166 158
4.24036530273587 2.37619788141766 -0.340435236692429 -0.3745746 -0.3061362 0.8751997 140 144 131
4.28359780328901 2.39318842382946 -0.381414175033569 0.4317428 0.8968723 -0.09601128 161 162 146
4.28020474928052 2.39899594278851 -0.367560386657715 0.568682 0.8101412 0.14238 180 181 167
4.22195146101148 2.39879257174053 -0.360138922929764 -0.1315846 0.9632321 0.2342422 180 180 171
4.26382735984952 2.39252120943585 -0.357425779104233 -0.4410484 0.7862406 0.4327841 157 161 153
4.25530985611112 2.35329169722119 -0.355068445205688 0.5320552 0.1084393 0.839737 189 187 183
4.19699934738309 2.37050468416729 -0.359961032867432 -0.4882465 0.08007433 0.8690244 185 186 178
4.25339732187421 2.35418123693981 -0.354846060276031 0.5118502 0.1423095 0.8472056 180 179 174
4.20858583467633 2.34734649153271 -0.355602204799652 -0.1617611 0.08429994 0.9832227 188 189 184
4.22684398906858 2.38037878962078 -0.346083909273148 -0.7260205 0.4256808 0.5400833 157 159 145
4.21632502096326 2.39112014265576 -0.362051486968994 -0.4373696 0.6017935 0.6682458 177 179 167
4.28737840669782 2.3909052083067 -0.382051676511765 0.8414686 0.5253012 -0.1264489 177 179 170
4.25006148832471 2.39389998407879 -0.368233889341354 0.02830889 0.9769807 0.2114411 154 157 139
4.27163324373395 2.39652425737896 -0.375750660896301 -0.000810926 0.9659931 -0.2585666 159 160 139
4.25050625818402 2.33679050894299 -0.361072957515717 -0.1365532 -0.3183239 0.9380955 177 185 177
4.18879321830899 2.37490791769543 -0.36625462770462 -0.729993 0.3487348 0.5877876 186 187 177
4.21839318292768 2.37473005743542 -0.351665914058685 -0.3407078 0.5869254 0.7344636 155 159 148
4.24414590614469 2.33260948153057 -0.36676612496376 -0.2635155 -0.6604008 0.7031574 185 186 180
4.20393792408139 2.38871831388989 -0.362118184566498 -0.3057861 0.9023364 0.3037826 190 192 186
4.27436862009198 2.37924451323071 -0.357158899307251 0.292259 0.02879823 0.9559055 169 172 158
4.22043917196424 2.34946662874737 -0.353578448295593 -0.09936544 -0.3038926 0.9475103 230 176 212
4.28248581903608 2.38212818594494 -0.35956072807312 0.6830238 0.4443036 0.5797179 177 178 170
4.21834871786267 2.38798446150341 -0.380709946155548 -0.2712095 0.7715458 -0.5754672 149 152 125
4.2176370980087 2.39060861559429 -0.362540721893311 -0.4392923 0.6319436 0.6384901 182 184 178
4.24502066391141 2.38338834734478 -0.335987448692322 -0.3136669 -0.1852798 0.9312811 131 136 123
4.26763019579084 2.3575616547636 -0.372770637273788 0.84469 -0.3471056 -0.4074513 171 172 161
4.19053528326184 2.37708742113629 -0.372192442417145 -0.7674878 0.578617 0.2759797 176 177 165
4.24402359741361 2.39379996748486 -0.337977826595306 0.1011246 0.931541 0.3492923 154 159 155
4.26536182182462 2.35093445272961 -0.363741636276245 0.7692526 -0.2677858 0.5801217 187 189 183
4.1955315830055 2.3572947451643 -0.363252371549606 -0.860227 -0.4365993 0.263421 179 180 170
4.2260434390846 2.39212090464153 -0.375127971172333 0.03762894 0.868784 -0.4937595 157 159 139
4.26834187524945 2.38493771048107 -0.345372259616852 0.9527123 0.2371509 0.1899966 160 164 154
4.24503544586332 2.38157970400372 -0.336699098348618 -0.3191368 -0.2536063 0.913146 145 148 138
4.27923897522123 2.3741963574461 -0.357292354106903 0.2005246 -0.1940768 0.9602729 183 181 177
4.2294682027641 2.3808235594801 -0.342436730861664 -0.4074342 0.3907808 0.8254016 163 168 154
4.26014683263929 2.39611286612072 -0.365787625312805 -0.3435981 0.9061289 0.2467198 170 170 158
4.27516922968061 2.37110514135876 -0.383778929710388 0.7272663 -0.6853 -0.03804873 142 144 126
4.21253696697385 2.36113459559002 -0.351169228553772 -0.03986025 -0.5795023 0.8139952 195 193 188
4.24401245134504 2.350356168466 -0.357025474309921 0.1128609 -0.6068059 0.7867967 202 172 189
4.26445004957349 2.36087531538525 -0.38293382525444 0.8985834 -0.4219683 -0.1203775 164 165 149
4.2327151061836 2.32732409925976 -0.373541593551636 -0.307035 -0.7368017 0.6023726 179 180 172
4.23004642742307 2.36997098417797 -0.341591656208038 -0.3206937 -0.5101234 0.7980787 166 170 166
4.2698095800224 2.39312166662731 -0.353578448295593 0.5499337 0.7279931 0.4093887 163 165 160
4.23491672294767 2.3708605238966 -0.341658383607864 0.127207 -0.1923894 0.9730389 178 180 168
4.27214471119077 2.36356610746899 -0.363852828741074 0.9510071 -0.1898443 0.2440177 184 185 181
4.23258171098859 2.39487857313671 -0.347040206193924 -0.3226806 0.9462357 -0.02269674 152 156 143
4.26564357298047 2.38119418116131 -0.341769576072693 0.7292757 -0.3528266 0.586234 146 150 144
4.22499076145322 2.33560437651196 -0.36528354883194 -0.2875779 -0.762497 0.5795665 188 188 180
4.22319684045942 2.3337659308485 -0.370057493448257 -0.2705374 -0.8724226 0.4070483 183 184 176
4.23869738596112 2.39512319059887 -0.340135008096695 0.03257329 0.9479313 0.3168047 140 147 141
4.22848967331083 2.39667994471111 -0.356024742126465 0.02642873 0.9336024 0.3573347 179 181 174
4.2530859472099 2.330252237039 -0.373393326997757 0.6041822 -0.7957234 -0.04228471 177 178 172
4.26424989717633 2.38781768770733 -0.339734703302383 0.5522465 0.5916224 0.5873728 157 162 150
4.21818563955457 2.33870298357525 -0.363548904657364 -0.1363077 -0.8788292 0.457252 178 179 165
4.25513193624646 2.36939269991436 -0.351065456867218 0.8316313 -0.4849129 -0.2706453 138 140 129
4.19615427272947 2.36307687254467 -0.373526751995087 -0.759988 -0.4842566 -0.4334902 170 173 162
4.19848940389783 2.3775321909956 -0.361962527036667 -0.4976899 0.125445 0.8582356 175 178 166
4.27536938207776 2.4011944005064 -0.363519251346588 0.3757376 0.7808616 0.4990757 170 170 154
4.25192955749662 2.3911424347929 -0.381443828344345 -0.1428526 0.8804722 -0.4520638 137 137 117
4.2139898897949 2.34168297739544 -0.356580704450607 0.3057045 -0.662334 0.6840017 170 172 162
4.26964656131894 2.3640999266676 -0.371554911136627 0.8967814 -0.3907425 -0.2076134 173 174 165
4.26282659786374 2.35409230680981 -0.383378624916077 0.7598387 -0.4865437 -0.4311848 177 178 169
4.22742221372754 2.32971841784039 -0.374282896518707 -0.4527478 -0.7278622 0.5150107 179 181 173
4.2714997889343 2.38353664370098 -0.3521329164505 0.8974062 -0.151598 0.4143431 173 175 168
4.22225163000257 2.36333257647076 -0.34751832485199 -0.2277853 -0.3254814 0.9177013 243 181 222
4.20749614256055 2.34421820135632 -0.355290830135345 -0.331551 -0.1951468 0.923034 189 188 180
4.26278213279874 2.34799880476513 -0.360316842794418 0.6785275 -0.1643544 0.7159525 183 185 180
4.24690351503522 2.32629365416088 -0.374594241380692 0.1862111 -0.9821824 0.02535864 178 178 170
4.25748924034269 2.37297315092602 -0.355535477399826 0.6778739 -0.6822917 0.2737974 154 157 146
4.27240417020948 2.36528593988934 -0.364067792892456 0.9883561 -0.125252 0.08639558 179 180 174
4.28257480877073 2.39407796354809 -0.375795125961304 0.4481551 0.8588609 -0.2480221 166 168 152
4.22164008634717 2.39692456217327 -0.368322849273682 -0.2283671 0.8456426 -0.4824282 168 169 151
4.25130686777265 2.36156458349743 -0.356847554445267 0.8652027 0.04331747 0.4995477 177 178 167
4.25846776979596 2.33616775961437 -0.363029986619949 0.5327941 -0.6668943 0.5209437 185 185 180
4.23409388082654 2.34230572672405 -0.356758624315262 0.2780429 -0.6696025 0.6887124 186 171 179
4.26006898897321 2.37477452250042 -0.357826083898544 0.4994525 -0.5390038 0.6782492 177 180 167
4.2681194903198 2.38931877108135 -0.348930507898331 0.2112801 0.7819329 0.5864655 157 161 153
4.24453727024228 2.35497302504101 -0.349384188652039 0.2946939 -0.5792777 0.7599953 202 185 196
4.19575396793515 2.37379605265179 -0.360539227724075 -0.4439152 0.1725884 0.8792909 195 194 189
4.23738524931104 2.32473690004864 -0.380109488964081 0.2636268 -0.9644647 0.01756869 170 171 167
4.24397907274396 2.3473317095808 -0.357714891433716 0.2356814 -0.5760622 0.7826919 193 170 180
4.21529457586438 2.38915569277325 -0.360524415969849 0.04791496 0.7160093 0.6964445 179 177 166
4.23622885959775 2.37514514418163 -0.342036426067352 0.002650379 -0.1482036 0.9889534 156 155 141
4.22969058769376 2.33403284044781 -0.366321355104446 -0.09055594 -0.7515345 0.6534489 194 194 190
4.19944564121396 2.38771755190411 -0.363563716411591 -0.3431797 0.9299124 0.1322521 187 188 182
4.20860806720884 2.35306937189617 -0.378819644451141 -0.624157 -0.3988702 -0.6718114 157 158 144
4.28706703203351 2.38322538824597 -0.377930074930191 0.9027135 -0.405114 0.1448826 176 175 169
4.27409431951673 2.39735455008068 -0.360390990972519 0.08745462 0.2545851 0.9630878 184 185 177
4.2832419635597 2.38211340399304 -0.362170100212097 0.7927637 0.2320931 0.5636121 178 177 171
4.26651827114255 2.35541552992382 -0.373315513134003 0.8693898 -0.3217281 -0.3750365 170 170 161
4.21877131479413 2.37192792387524 -0.347284823656082 -0.4209169 0.4327182 0.7972351 180 182 174
4.25664416568906 2.35209078283825 -0.382022053003311 0.4814748 -0.5456378 -0.6859019 164 165 154
4.2284563543144 2.38966352434673 -0.381466060876846 -0.1510601 0.9431682 -0.2959976 161 163 146
4.23611769693525 2.3947007128767 -0.36932361125946 0.007614133 0.9285117 -0.3712251 166 168 153
4.24045423286588 2.35284692736187 -0.354979485273361 -0.2095258 -0.5696436 0.7947359 176 167 169
4.20118031519086 2.38860721083203 -0.364987015724182 -0.277038 0.9605408 0.02472324 179 182 174
4.22223315256269 2.34965939016857 -0.354089945554733 -0.00207861 -0.2893351 0.9572256 239 179 222
4.22889003770978 2.35547108145275 -0.351487994194031 0.1241748 -0.5982263 0.7916476 175 171 163
4.24254474657209 2.34079343767681 -0.36318564414978 0.01294551 -0.4859916 0.8738676 226 181 210
4.18868199604184 2.36841423006573 -0.367967039346695 -0.7124971 -0.2984224 0.6350527 186 186 181
4.24712595956952 2.3943596550993 -0.371747642755508 -0.06071561 0.9976828 0.03070224 155 156 139
4.21483496444852 2.34871048422375 -0.35444575548172 -0.2016216 -0.1696405 0.964661 225 178 210
4.22115085142286 2.33656806440869 -0.367522269487381 -0.2627497 -0.8008714 0.5381148 183 182 174
4.26024690883786 2.37558991404095 -0.337929636240005 0.5863677 -0.2137712 0.7813289 181 183 181
4.19161752479703 2.37690944166699 -0.373615711927414 -0.7566162 0.5864841 0.2890821 167 169 153
4.26640710848005 2.35413677187481 -0.37125837802887 0.8707982 -0.332255 -0.362377 173 174 168
4.20149163025052 2.34879941435375 -0.364319860935211 -0.8307795 -0.5565099 0.01010842 175 174 165
4.22951266782911 2.3403486678175 -0.357425779104233 -0.1164917 -0.6028011 0.7893419 173 173 169
4.2615367533508 2.3673911759428 -0.360494762659073 -0.03909381 -0.06995918 0.9967835 176 178 166
4.25330833213956 2.37908894510784 -0.335453718900681 0.1674537 -0.1118133 0.9795188 147 150 141
4.23617324846418 2.35360307188549 -0.355290830135345 -0.2128991 -0.595398 0.7747098 171 171 159
4.22444221990735 2.33103055449047 -0.375950813293457 -0.3225358 -0.8250035 0.4640473 180 181 173
4.27049908655317 2.37737650366345 -0.355268597602844 0.6991884 -0.1256949 0.7038014 176 177 168
4.26074502485425 2.36941940279522 -0.360903948545456 0.07105063 -0.2270605 0.9712854 176 177 168
4.21882913129956 2.38743299932995 -0.359400600194931 -0.08234177 0.6202762 0.7800495 167 173 164
4.20954213159711 2.37277299852886 -0.357737123966217 -0.5242182 0.1397122 0.8400451 176 176 169
4.23449418562085 2.33300978632488 -0.365587472915649 -0.0356639 -0.602181 0.7975626 191 190 186
4.23631778972776 2.38229126425305 -0.33967912197113 -0.3419717 -0.2349477 0.9098654 149 152 145
4.25046179311902 2.39245457144299 -0.337344020605087 0.2087563 0.9527834 0.2205098 132 138 137
4.22606561201246 2.37335128279247 -0.341636121273041 -0.4571413 -0.2882412 0.841391 174 175 166
4.27763775604398 2.40043825598278 -0.3639195561409 0.5958046 0.6943596 0.403586 164 167 152
4.22346369045407 2.33834714384594 -0.36276313662529 -0.1978989 -0.8163873 0.5425383 188 187 181
4.25695554035337 2.37192792387524 -0.359382808208466 0.564091 -0.5929351 0.5746558 173 175 160
4.27305654304654 2.36850316019573 -0.372325867414474 0.7263107 -0.6772976 0.1172207 175 175 165
4.24045429247052 2.35415906401196 -0.350109159946442 -0.2414137 -0.8039631 0.5434728 230 181 218
4.26567319648893 2.38611645193615 -0.348129898309708 0.4778516 0.7705645 0.421768 140 143 130
4.22238138931424 2.37378115149059 -0.345179527997971 -0.7618309 0.19873 0.6165387 178 181 173
4.22800043838651 2.3840258786253 -0.346706598997116 -0.7340251 0.4442792 0.5136372 153 153 143
4.21932724731595 2.39252120943585 -0.372236907482147 -0.4153969 0.77613 -0.4744131 164 166 145
4.21783725040586 2.33856958838024 -0.365075975656509 -0.1892854 -0.9182431 0.3478515 178 179 163
4.22059485929639 2.33140868635693 -0.376084238290787 -0.2161441 -0.8842189 0.4140515 171 173 165
4.21287796514661 2.38847369642773 -0.37726292014122 -0.3468293 0.8146235 -0.4648634 153 156 135
4.23318210857541 2.39143151732006 -0.375995278358459 -0.1434417 0.938889 -0.3129088 163 165 149
4.24981687086255 2.36312133760967 -0.343637645244598 -0.1177936 -0.7108677 0.6933915 166 166 155
4.21879354732663 2.33803576918163 -0.364497750997543 -0.174273 -0.8838184 0.4341589 178 179 165
4.28827909248502 2.38723940344372 -0.379331111907959 0.9918767 0.01761992 0.1259772 172 175 165
4.25845298784406 2.37925202341595 -0.337470054626465 0.455342 0.004030896 0.8903075 154 158 152
4.20847467201383 2.33944434614697 -0.357677817344666 -0.2812504 -0.7226802 0.6313727 186 186 179
4.23298195617826 2.37197238894024 -0.341680616140366 0.02427806 -0.1793257 0.9834902 161 164 149
4.21226797121198 2.36543423624554 -0.34921008348465 -0.1637305 -0.0998705 0.9814368 180 179 167
4.26318243759305 2.39243227930584 -0.35969415307045 -0.4262929 0.7716363 0.4720718 150 155 138
4.24687883871228 2.35973114462414 -0.347388595342636 0.1416015 -0.5544131 0.8201067 182 183 173
4.25744477527768 2.37228376360455 -0.356536209583282 0.6659717 -0.6610609 0.3456591 155 160 147
4.28219673650892 2.37695402594128 -0.381532788276672 0.7175174 -0.6683568 0.1961327 170 170 158
4.26284883039624 2.35351414175549 -0.380042791366577 0.8257085 -0.4612017 -0.3248053 167 167 157
4.2606138350311 2.38941890688458 -0.355168521404266 0.00398274 0.9808276 0.1948366 146 148 134
4.27012095468671 2.39576811285534 -0.360628187656403 0.0574302 0.5483747 0.8342583 156 159 143
4.28084013479383 2.39630181284466 -0.374905586242676 0.3148926 0.8561886 -0.4096141 160 159 144
4.24223337190778 2.35102338285961 -0.355424284934998 0.07749962 -0.6167628 0.7833246 189 166 177
4.21510187404782 2.38051218481579 -0.354401290416718 -0.2988756 0.515267 0.8032268 149 153 136
4.25357524173887 2.36476702185192 -0.359783113002777 0.6155792 -0.05426602 0.7862045 177 174 159
4.25980213897855 2.38967461081066 -0.33763313293457 0.4469481 0.715581 0.5368251 153 156 150
4.22715536373288 2.32829517813244 -0.375884085893631 -0.5061728 -0.6937802 0.5123066 180 181 174
4.21997222917707 2.39487857313671 -0.369924068450928 -0.4074786 0.7473322 -0.5248389 158 160 136
4.26261905449064 2.35124570818463 -0.359649688005447 0.5709781 -0.05158807 0.8193429 188 187 183
4.21455327289731 2.35364753695049 -0.353778600692749 -0.3754964 -0.1901918 0.9070995 197 172 182
4.23858616369397 2.39455611200848 -0.351843804121017 -0.002257949 0.9984075 -0.05636788 148 153 135
4.27639237659604 2.39710242243328 -0.374460816383362 0.0574489 0.8871598 -0.4578724 158 161 138
4.22192922847898 2.3387994238905 -0.363430291414261 -0.1966262 -0.8338702 0.5157506 187 186 177
4.25436691063077 2.39188069792309 -0.349535405635834 0.3223374 0.9459679 0.03525956 152 156 147
4.24234900491864 2.34710032434979 -0.357176721096039 0.2932829 -0.5625049 0.7730287 226 179 211
4.23852685707242 2.39505643339672 -0.341695427894592 0.0265286 0.9736047 0.2266938 138 146 139
4.24450168626935 2.35262460203686 -0.352355301380157 0.176286 -0.7964534 0.5784334 232 179 218
4.24848250167997 2.39286584349194 -0.336276561021805 0.153675 0.9466495 0.2832645 142 148 147
4.25504300611646 2.36805839033642 -0.338433742523193 0.2648166 -0.5411529 0.7981389 161 164 159
4.23142526167066 2.3300742575697 -0.370368838310242 -0.3535755 -0.7286283 0.5865877 189 189 186
4.27296755331189 2.3708605238966 -0.35969415307045 0.5687525 -0.5507373 0.6109084 171 171 164
4.25230762975843 2.39153165312328 -0.360906183719635 0.145814 0.9718086 0.1852738 148 152 138
4.21950516718061 2.38135725946942 -0.353400528430939 -0.3980346 0.636838 0.6603074 164 169 153
4.25045434253843 2.39275843592205 -0.345646560192108 0.3186622 0.9450669 0.0728214 147 153 137
4.2360731722656 2.35765046568432 -0.349553197622299 -0.2459928 -0.7413141 0.6244526 167 166 160
4.25638846176297 2.35741705389538 -0.359516233205795 0.401642 0.4302783 0.8084208 184 185 179
4.28651103990705 2.39321059675732 -0.371236145496368 0.9726151 0.1798311 0.1472436 187 188 183
4.23004642742307 2.39025289507427 -0.376462310552597 -0.1288642 0.9249801 -0.3574994 160 161 147
4.26340482252271 2.36578995676556 -0.360450267791748 -0.01999314 -0.02465276 0.9994961 178 180 172
4.26902387159497 2.36086780520001 -0.371629059314728 0.8883151 -0.2829625 -0.3617021 172 172 163
4.19424173849256 2.38184649439373 -0.368767648935318 -0.8586344 0.3930936 0.3289748 162 163 141
4.26398304718168 2.38887400122204 -0.340524196624756 0.4750856 0.8295298 0.2935539 159 163 153
4.22840074318082 2.3371611306242 -0.362822443246841 -0.03166104 -0.7676844 0.6400455 193 188 186
4.25837883966596 2.39003045053997 -0.339590162038803 0.3041892 0.9262471 0.222565 128 134 126
4.23800793903501 2.39679104776898 -0.363608211278915 0.1905166 0.9812749 -0.02833823 168 169 157
4.25278732793958 2.33530992956677 -0.362108677625656 0.1688163 -0.5635008 0.8086829 191 191 187
4.25623277443082 2.38566047640362 -0.335642755031586 0.517553 -0.05870684 0.8536348 147 149 145
4.23993531482846 2.39493782015362 -0.359768271446228 0.2913003 0.9526285 0.08742495 157 160 148
4.24543575065763 2.35226876230755 -0.352622181177139 0.1946227 -0.7679207 0.6102621 238 180 221
4.19613943117292 2.38493031950512 -0.371036022901535 -0.6686485 0.7324532 -0.128146 177 177 167
4.21145466583402 2.38135725946942 -0.356803089380264 -0.2797082 0.1309005 0.9511195 167 170 153
4.2478375794235 2.39382583590069 -0.367270201444626 0.05605177 0.9738297 0.2202587 143 146 127
4.26233736293943 2.38024527521649 -0.339456707239151 0.5330044 -0.1073608 0.8392735 163 165 163
4.23573956506879 2.39483410807171 -0.349864542484283 -0.1265835 0.9876019 -0.09283949 147 154 137
4.21772602813871 2.35409230680981 -0.352533221244812 -0.2148637 -0.2004736 0.9558472 184 175 171
4.21212182062299 2.38321418257275 -0.357158899307251 -0.01138773 0.3618243 0.9321768 175 176 162
4.24043200033338 2.37525267096081 -0.341158002614975 -0.3549615 -0.2941058 0.8874143 138 140 127
4.2142567993942 2.38576061220684 -0.358760118484497 0.06188121 0.4938098 0.8673653 171 173 158
4.28546587246091 2.39612395258465 -0.369746148586273 0.8071105 0.5194163 0.2806766 187 188 181
4.25522092598111 2.34635323973217 -0.356402784585953 0.1097987 -0.3292471 0.9378383 191 187 184
4.27007648962171 2.39705795736828 -0.375617235898972 -0.002740639 0.9724455 -0.2331142 155 155 136
4.26491705196531 2.34565634222546 -0.363889902830124 0.852769 -0.2916892 0.4332464 190 190 186
4.25926837938459 2.3372352788023 -0.374638706445694 0.8214884 -0.4550545 -0.3436309 156 158 151
4.27937237041623 2.37517482729473 -0.380287408828735 0.762329 -0.6404564 0.09311316 174 171 163
4.24512443559797 2.39354414434948 -0.365520775318146 0.2214515 0.9711339 0.08864642 164 165 150
4.24611774700315 2.32706458063641 -0.376002699136734 0.1172333 -0.9893002 0.08684148 177 176 169
4.22284100073011 2.3909199902586 -0.377218425273895 -0.1372503 0.8605689 -0.490493 154 156 136
4.28426495807798 2.39692456217327 -0.371147215366364 0.660617 0.7372147 -0.1417731 179 179 163
4.27474669235379 2.39656872244396 -0.377307385206223 -0.0006781562 0.982309 -0.187266 155 160 144
4.23462764042051 2.32733149023571 -0.371836602687836 -0.1272922 -0.7343913 0.666683 188 188 182
4.28680018203885 2.39225429983654 -0.372726172208786 0.968169 0.2501124 0.009624613 190 191 189
4.27586976307065 2.38484878035107 -0.357948392629623 0.5243484 0.2280423 0.8203996 165 164 154
4.21170673387677 2.38884431810894 -0.360420614480972 0.08776626 0.8005849 0.5927571 171 173 156
4.28101805465848 2.39572364779034 -0.375617235898972 0.2970261 0.9048324 -0.3050472 162 162 147
4.22055778520734 2.33523375483074 -0.368189424276352 -0.2744835 -0.818607 0.5045208 179 180 171
4.27392385023267 2.39988226385632 -0.360227882862091 0.04761808 0.5152017 0.8557451 181 182 175
4.2394312383476 2.39639074297466 -0.362095952033997 0.3187151 0.9470211 0.03964564 166 168 159
4.26767472046048 2.37966711016216 -0.34804093837738 0.9094375 -0.136902 0.3926594 179 181 173
4.21052066105039 2.38696152658978 -0.357692658901215 0.1741726 0.5367396 0.8255752 172 172 156
4.20827446001203 2.38751739950695 -0.373193204402924 -0.1959718 0.942654 -0.2701824 161 164 151
4.25240395086438 2.39164645166912 -0.339768052101135 0.30328 0.9519675 0.04217807 135 141 135
4.24908295887143 2.39140922518292 -0.334252804517746 0.2155875 0.880435 0.4223225 160 163 163
4.24570266025693 2.32954055758038 -0.378686189651489 0.4831273 -0.8669816 -0.1221923 156 158 146
4.21298918741376 2.38676137419262 -0.35815966129303 0.2429041 0.5030422 0.8294252 185 184 173
4.25513193624646 2.36977071257153 -0.359427273273468 0.7018465 -0.5114609 0.4958017 171 172 155
4.23106942194135 2.35831768007794 -0.348930507898331 -0.05128337 -0.6499787 0.7582201 178 179 171
4.2569911243263 2.35394114943066 -0.357150018215179 0.4483161 0.365093 0.8159165 184 185 179
4.22631028907926 2.39694673510113 -0.357859432697296 -0.05056248 0.9336419 0.3546212 178 181 171
4.23857138174207 2.39513058157482 -0.343296647071838 -0.03237847 0.9918821 0.1229692 134 143 131
4.25232986229093 2.39056415052929 -0.382733672857285 -0.1556179 0.8884358 -0.4318157 130 131 111
4.22833404558332 2.3572058150343 -0.349486470222473 -0.08804666 -0.594357 0.799367 188 180 179
4.25050625818402 2.3908755251936 -0.382689207792282 -0.1528633 0.8940762 -0.4210232 134 137 114
4.21350065487058 2.34613079519787 -0.378508299589157 -0.6355502 -0.4677298 -0.6142514 161 161 144
4.28237459676892 2.3844263026289 -0.362296104431152 0.702094 0.3737168 0.6061351 144 145 130
4.25751147287519 2.39490074606457 -0.365921050310135 -0.275954 0.9321065 0.2345782 164 166 150
4.25900152938993 2.38484878035107 -0.337755441665649 0.5045581 0.02057603 0.8631325 151 153 147
4.19312981384427 2.38184649439373 -0.368856579065323 -0.8469583 0.4458602 0.2896037 182 183 174
4.22364161031873 2.39848119707623 -0.360672652721405 -0.07024565 0.9653373 0.2513751 176 177 168
4.21189943569333 2.34538955183544 -0.355001747608185 -0.008051123 -0.1669899 0.9859257 190 185 181
4.22848967331083 2.39612395258465 -0.355424284934998 -0.005568397 0.9428699 0.3331146 174 177 166
4.20126924532087 2.35747260542431 -0.356536209583282 -0.5363551 -0.3781245 0.7545496 193 194 190
4.26302680986554 2.34074897261181 -0.364119708538055 0.8092158 -0.5027258 0.3040339 184 184 178
4.23311541097791 2.32940716238537 -0.370279878377914 -0.2503276 -0.7367361 0.6281371 191 191 187
4.2765702964607 2.39692456217327 -0.3605837225914 0.2930023 0.2074747 0.9333295 186 186 180
4.25025419014127 2.3300445744566 -0.366113781929016 -0.002524612 -0.7531071 0.6578931 191 191 187
4.27136633413465 2.38811785669842 -0.351421266794205 0.9141786 0.2739265 0.2987336 171 177 159
4.28820124881894 2.38712830038586 -0.381921947002411 0.9946813 0.1015718 -0.01709806 182 182 178
4.26096597927243 2.38962275476971 -0.339478969573975 0.3882116 0.85937 0.3328288 155 160 153
4.28644434230954 2.39306981058636 -0.375276237726212 0.7627698 0.6330944 -0.13181 184 185 177
4.27763775604398 2.37348467798748 -0.372325867414474 0.7652252 -0.6420631 0.04674846 159 158 142
4.21004918831022 2.36767584772625 -0.34972220659256 -0.4972393 0.3381274 0.7990137 157 160 149
4.26736334579618 2.35920733900585 -0.374727666378021 0.8653054 -0.3462342 -0.3624479 170 169 161
4.2784161331001 2.38678354712048 -0.36122864484787 0.5560442 0.1626752 0.8150777 147 147 128
4.26669619100721 2.39728028269329 -0.372993022203445 -0.0989785 0.9747157 -0.200331 163 161 149
4.21043167131574 2.34857708902874 -0.376684695482254 -0.5944349 -0.4671635 -0.6545268 145 151 134
4.23641566055448 2.39486069174328 -0.347649544477463 -0.1332661 0.9863169 -0.09705215 145 150 136
4.2344645621124 2.36577517481365 -0.343637645244598 -0.1628167 -0.5453505 0.822243 176 175 170
4.2647836567703 2.35923511477032 -0.383345246315002 0.9176384 -0.3687546 -0.1481886 164 165 150
4.25686655061872 2.33474440069714 -0.367033004760742 0.7002769 -0.7021645 0.1287529 182 183 178
4.27852729576261 2.39997119398632 -0.365543007850647 0.5930034 0.7556546 0.2780882 160 164 150
4.25170717256696 2.3944782683424 -0.370368838310242 0.04037099 0.989161 0.1411765 176 177 167
4.2091640593353 2.33690161200085 -0.363608211278915 0.2398411 -0.9631966 0.1213608 189 189 182
4.27055094259412 2.36595303507366 -0.37167352437973 0.8686738 -0.4848414 -0.1016596 179 179 170
4.23138073700101 2.33848065825024 -0.361606687307358 0.1741895 -0.8217866 0.542517 220 181 208
4.25430909412534 2.35558242292919 -0.356002509593964 0.5710287 0.4882147 0.6599793 180 178 172
4.28518787639768 2.39563459845104 -0.369701683521271 0.8408703 0.4486071 0.3028016 187 188 184
4.19539818781049 2.38624984713116 -0.368456304073334 -0.700804 0.7120609 -0.04293023 179 180 170
4.27252278345258 2.39292151423016 -0.360628187656403 0.3724046 0.3909487 0.841709 179 182 163
4.23871961849363 2.34960002394238 -0.355068445205688 -0.02088347 -0.3210606 0.9468284 200 176 185
4.22021678703458 2.37223929853954 -0.346528708934784 -0.403178 0.4900005 0.7728823 190 187 184
4.24185529964597 2.3929438063673 -0.373615741729736 -0.1088409 0.9631274 -0.2460475 156 157 139
4.26371619718702 2.34982246847668 -0.359916538000107 0.6773143 -0.1306473 0.7240004 185 184 180
4.2444795133415 2.36981529684582 -0.341413736343384 -0.3820477 -0.4536897 0.8051119 144 145 134
4.20862290876538 2.38934845419445 -0.369746148586273 -0.1662408 0.9500216 -0.2642404 167 170 155
4.2699875594917 2.39599055738964 -0.378063499927521 0.0298547 0.9946494 -0.09890085 159 160 145
4.22067639845044 2.37532312365093 -0.351688146591187 -0.3612372 0.5034304 0.7848984 154 161 147
4.27096608894498 2.36672408075848 -0.366454780101776 0.9284605 -0.3714243 -0.002277407 175 176 171
4.22770020979078 2.39317721815624 -0.371558606624603 0.04343439 0.8577661 -0.5122018 168 170 154
4.26553974168927 2.35538215132275 -0.375172436237335 0.871869 -0.3348954 -0.3573368 171 172 160
4.26914248483808 2.35444814653912 -0.367166429758072 0.8612615 -0.486707 -0.1460987 177 179 171
4.23716286438138 2.39247674437084 -0.374772161245346 -0.06657905 0.9532655 -0.2947068 156 160 138
4.2747911574188 2.38887400122204 -0.358092963695526 0.4447702 0.2986188 0.844397 188 189 180
4.27834937589795 2.38202447386303 -0.357247859239578 0.2352078 0.4443941 0.8644022 157 161 137
4.21790394800336 2.36930376978436 -0.348930507898331 -0.3850066 0.02288619 0.92263 178 178 161
4.21705887334974 2.33536715002575 -0.371035993099213 -0.4924564 -0.7259125 0.4801434 175 176 161
4.25099549310834 2.39185399504223 -0.335164606571198 0.2455214 0.8717684 0.4239565 143 149 149
4.19006083028943 2.37601990194836 -0.366877317428589 -0.6839101 0.5451518 0.4848469 188 187 180
4.22746667879255 2.39385551901379 -0.370413303375244 0.08747477 0.8586468 -0.5050483 168 171 155
4.25278947370679 2.3911127516798 -0.334015607833862 0.3448776 0.632634 0.6934217 158 164 164
4.28595510738523 2.39261013956585 -0.381799638271332 0.6224441 0.7657677 -0.1617503 174 175 169
4.22398260849149 2.39852578135052 -0.360183417797089 -0.04907362 0.9757859 0.2131519 175 177 166
4.26411650198133 2.3438624808363 -0.36801153421402 0.9311529 -0.3469065 -0.1122953 177 179 172
4.28453180807264 2.39329952688732 -0.367566734552383 0.8750407 0.09619481 0.4743946 188 188 178
4.27363470810086 2.39634627790966 -0.383845627307892 0.07099395 0.9942706 -0.07991162 180 177 177
4.23200342672498 2.34537465067425 -0.355780094861984 0.06361797 -0.227773 0.9716338 179 177 172
4.25666639822156 2.39000815840283 -0.341547191143036 0.2905782 0.9556295 0.04833924 136 143 134
4.25448701398999 2.34744281263867 -0.356847554445267 0.1402223 -0.2539895 0.9569885 202 193 196
4.2344200970474 2.35957796068707 -0.348115086555481 -0.08856232 -0.5741257 0.8139634 163 166 155
4.22040954845578 2.33478159399548 -0.368938148021698 -0.2815061 -0.8318239 0.4783547 177 179 168
4.27057466524274 2.38955003710308 -0.355726718902588 0.774484 0.5130537 0.3700682 151 156 150
4.25020972507627 2.39456719847241 -0.372133135795593 0.01032094 0.9963942 0.08421466 163 166 150
4.28081790226133 2.39783639402905 -0.365431785583496 0.6522522 0.6534597 0.3841321 174 176 163
4.27266362922818 2.38480431528607 -0.356914281845093 0.6501167 0.1383713 0.747129 180 181 166
4.21808186786802 2.39132029505291 -0.371347337961197 -0.4792552 0.7608957 -0.4374383 148 151 126
4.22844520824582 2.37382943125286 -0.341224730014801 -0.2868655 -0.2169781 0.9330748 180 178 174
4.22350815551908 2.38767308683911 -0.382022053003311 -0.1401705 0.9009997 -0.4105507 156 157 137
4.26180360334546 2.3893410632185 -0.347818553447723 0.3534024 0.9354665 -0.003046231 142 145 128
4.24423489587934 2.39383334608593 -0.341102421283722 0.2180378 0.9477224 0.2329846 135 141 130
4.2243754627052 2.34110469313183 -0.358493268489838 -0.1399714 -0.7087747 0.6914091 189 186 179
4.2605226399246 2.3897369572691 -0.351554691791534 0.2590501 0.9657689 0.01354422 145 148 134
4.22871205824048 2.3536920020155 -0.353000223636627 0.2683023 -0.5188752 0.8116542 180 176 172
4.19453082101972 2.37290639372387 -0.361339807510376 -0.530196 0.05474496 0.8461059 179 178 170
4.26983187215955 2.399348563867 -0.369234651327133 -0.2983088 0.8783059 -0.3736182 148 153 133
4.2463253499809 2.39212090464153 -0.379709184169769 -0.08980554 0.9237005 -0.372441 148 150 132
4.2057615281883 2.38580507727184 -0.357292354106903 -0.2190958 0.5052074 0.834723 163 165 158
4.21954963224561 2.36374408693829 -0.347863048315048 -0.2866425 -0.1832014 0.9403581 207 187 195
4.21029827612073 2.36195010633984 -0.350961655378342 -0.1814803 -0.4177313 0.8902615 198 194 190
4.19046113508374 2.37390727491894 -0.364342093467712 -0.652926 0.2738299 0.7061903 190 190 183
4.21020928638608 2.38915569277325 -0.359842419624329 0.05580939 0.8611704 0.5052434 187 187 179
4.27810922878415 2.39767176600018 -0.361651182174683 0.4883677 0.3961007 0.7775611 184 184 173
4.22281429784925 2.39790303202191 -0.363412499427795 -0.1497511 0.9861796 0.07088295 175 177 166
4.23520586507947 2.39483410807171 -0.348797082901001 -0.1414197 0.9837037 -0.1110289 141 149 133
4.19864503162534 2.35631627531567 -0.360628187656403 -0.6560751 -0.5443046 0.522779 181 182 171
4.2445239784065 2.32992965670147 -0.369890689849854 -0.2713628 -0.7729482 0.5735096 190 189 183
4.20358208435209 2.38816232176342 -0.370368838310242 -0.2582131 0.9251432 -0.2782733 184 185 180
4.26029137390287 2.36432225199261 -0.360628187656403 -0.0200762 0.0381162 0.9990716 181 180 172
4.21419749277265 2.38005263300457 -0.355409443378448 -0.3291099 0.4883178 0.808228 144 146 127
4.27096602934034 2.38860721083203 -0.352644413709641 0.9251277 0.3347013 0.1792031 158 163 144
4.24912742393644 2.32807273359814 -0.368233889341354 -0.07234424 -0.8577319 0.5089815 193 193 187
4.21853301542432 2.38103956671276 -0.353492677211761 -0.4226768 0.518663 0.7431911 169 172 159
4.23920885341794 2.39216536970654 -0.374416321516037 -0.07929213 0.9596315 -0.269852 156 157 140
4.25832322853238 2.39070314856091 -0.353250414133072 0.3599152 0.9308217 -0.06349779 151 153 142
4.24871597307355 2.3274833628706 -0.369201302528381 -0.08067305 -0.9363202 0.3417547 189 188 182
4.23233703392179 2.323713965135 -0.377374112606049 -0.110601 -0.8674942 0.4849961 158 164 162
4.24361214655072 2.35627169104138 -0.348485738039017 0.2447207 -0.5374319 0.8070184 178 178 171
4.23204795139463 2.39336628408947 -0.345372289419174 -0.6993893 0.6920019 0.1788517 153 157 143
4.20875636356504 2.38754708262005 -0.357366472482681 0.08128957 0.677967 0.7305838 180 184 172
4.23840824382932 2.37855512590923 -0.341680616140366 -0.3146188 -0.2928007 0.9029301 140 143 130
4.28742287176282 2.38055664988079 -0.383311897516251 0.8544314 -0.492003 0.1669732 176 177 166
4.23307094591291 2.3943447539381 -0.351376801729202 -0.09745963 0.995239 0.001029731 170 171 157
4.26562867181928 2.39545673819103 -0.361562222242355 -0.373365 0.7187356 0.5865302 157 160 146
4.25023934858472 2.39234334917584 -0.340613156557083 0.3132972 0.9479851 0.05629606 131 137 129
4.23622885959775 2.34157926531353 -0.361384302377701 0.3466225 -0.7210702 0.5999255 238 180 224
4.28688911216886 2.38602740259686 -0.37085810303688 0.9567919 0.1644172 0.2398256 186 187 185
4.21811745184095 2.37717635126629 -0.352115124464035 -0.233471 0.3860717 0.8924348 159 163 148
4.20260355489881 2.36532301397839 -0.357470273971558 -0.3062932 0.3837927 0.8711416 186 186 180
4.24423483627469 2.37232822866955 -0.340257316827774 -0.4321249 -0.365825 0.8242816 142 145 130
4.22820059078366 2.39267677755871 -0.372904062271118 -0.000279808 0.8690167 -0.4947827 165 166 150
4.26382735984952 2.35169047804394 -0.360116690397263 0.5599274 -0.1367163 0.8171842 184 185 178
4.23493901508481 2.39349967928448 -0.340346276760101 -0.5314465 0.6346796 0.5610227 149 154 143
4.20956436412961 2.39020843000927 -0.367522239685059 -0.1989101 0.9655525 -0.167759 172 174 161
4.23498348014981 2.38220233412304 -0.340791046619415 -0.3172005 -0.1602245 0.9347256 160 162 156
4.23648462312848 2.36715764494457 -0.34315949678421 0.1218918 -0.3334543 0.9348533 180 178 170
4.2361398698631 2.34271711798229 -0.359038114547729 0.396747 -0.7114981 0.5799675 239 177 222
4.2260582210365 2.37874788733044 -0.341947495937347 -0.6180212 0.2899926 0.7307217 166 170 163
4.26616249101789 2.37933344336071 -0.343748837709427 0.8198385 -0.4064525 0.4033128 141 146 134
4.27069917934568 2.35609383078137 -0.366276890039444 0.8812895 -0.4714307 -0.03289039 180 180 172
4.24294499176175 2.39383334608593 -0.363585948944092 0.3289388 0.9443297 0.006378916 166 168 153
4.21710333841474 2.37697619886913 -0.3521329164505 -0.2554737 0.3682716 0.8939291 162 165 153
4.2224851610008 2.33127517195263 -0.377485305070877 -0.2761891 -0.8631665 0.4226856 166 167 160
4.22875658291013 2.32656056376019 -0.377841114997864 -0.5026475 -0.6881737 0.5232232 175 176 167
4.20785198228986 2.35186845751324 -0.356224864721298 -0.1071652 -0.04284912 0.9933175 207 175 188
4.27667192238004 2.39583165140667 -0.381151556968689 0.2194135 0.9617563 -0.1639587 186 188 183
4.19931224601896 2.38696152658978 -0.368634194135666 -0.3191706 0.9208338 -0.2240428 183 184 180
4.26803050058515 2.36476702185192 -0.380687713623047 0.7085477 -0.6922359 -0.1370025 162 162 149
4.26491705196531 2.35751707048931 -0.383801162242889 0.9201165 -0.3627592 -0.147619 166 166 154
4.26864210384519 2.38687247725048 -0.347140282392502 0.4876214 0.6144989 0.6201746 148 154 139
4.26238182800443 2.38914091082134 -0.351732611656189 0.1917955 0.9717645 0.1374345 143 148 134
4.22665867822797 2.34693140478649 -0.355379790067673 0.1899871 -0.4592569 0.8677488 175 173 163
4.23217395561368 2.35923690290966 -0.347536861896515 -0.05621735 -0.6141247 0.7872042 190 180 181
4.25860122459562 2.35284692736187 -0.358315348625183 0.394859 0.2464268 0.8850763 179 180 172
4.25544331091077 2.36507839651623 -0.361250877380371 0.4087527 -0.01939679 0.912439 165 168 154
4.26018575447232 2.38981921167889 -0.34782412648201 0.3285492 0.9443276 0.01734402 153 155 147
4.20273700969846 2.35515982599774 -0.356336057186127 -0.4721576 -0.4407535 0.7634157 187 187 180
4.27667037265928 2.39986009092846 -0.363096714019775 0.4654202 0.7259873 0.5062871 175 175 162
4.24490199106366 2.32749456854382 -0.378752917051315 0.5073109 -0.8500373 -0.1416762 162 163 155
4.2763478519264 2.40195054503002 -0.364875823259354 0.4790621 0.8260649 0.2968438 174 176 165
4.26473913210065 2.39189857931652 -0.356892049312592 -0.4399376 0.7946103 0.4183889 153 154 144
4.28223166483075 2.38271707983532 -0.359980076551437 0.6832466 0.4584852 0.5683005 171 174 166
4.26585111635358 2.39870364161053 -0.368189424276352 -0.4803753 0.8686568 -0.1211401 159 161 145
4.20193640010984 2.36361057253399 -0.357559204101563 -0.3626418 0.3925096 0.8452379 178 178 171
4.27732638137967 2.37259513826885 -0.377173960208893 0.809682 -0.5656998 0.1562014 172 171 163
4.2697800161186 2.36483377905407 -0.367566734552383 0.9803994 -0.1742447 -0.09195569 176 178 171
4.2309359671417 2.35293585749188 -0.355780094861984 0.3301615 -0.4640348 0.8219885 181 180 167
4.23388633745343 2.3909941384367 -0.381666213274002 -0.1768936 0.973188 -0.1470165 167 170 153
4.23747423904569 2.39478952379742 -0.369034498929977 0.0480785 0.9340277 -0.3539501 165 168 150
4.23078033941419 2.36137563677349 -0.346139520406723 -0.09793033 -0.3880854 0.9164057 235 181 219
4.23680708425672 2.35102338285961 -0.355691134929657 -0.2155978 -0.3846116 0.8975475 179 174 165
4.2767036916557 2.39670211763897 -0.376773655414581 0.1718804 0.9629577 -0.2077731 161 165 147
4.2666517259422 2.39220983477154 -0.354089945554733 -0.2103646 0.8855153 0.4142576 158 168 151
4.26993415372998 2.39528769941845 -0.359880954027176 0.2170295 0.6552899 0.7235284 156 162 152
4.23851946609647 2.37101621122875 -0.342837035655975 0.06374199 -0.2084009 0.9759641 188 183 165
4.2859884859863 2.39165384264507 -0.38367885351181 0.6721631 0.681922 -0.2884081 171 172 162
4.24650321024091 2.39470059366741 -0.369256883859634 0.0026504 0.9991367 0.04145826 157 157 140
4.21674755829007 2.34248358698406 -0.360316842794418 0.1954403 -0.7686346 0.609101 170 169 159
4.24073222892911 2.32540411444225 -0.379197686910629 0.3081467 -0.9508849 -0.02938436 173 174 169
4.26258198040158 2.34935540648022 -0.376351118087769 0.8543844 -0.3972938 -0.3349401 165 166 157
4.25410894172818 2.39287704916515 -0.379775911569595 -0.2438332 0.8934026 -0.3773289 134 135 105
4.21229974048764 2.35587150545635 -0.355023980140686 -0.3028478 -0.3218629 0.8970437 192 176 181
4.26731888073117 2.37846619577923 -0.347551703453064 0.8601105 -0.3319329 0.3873376 182 183 169
4.27745983617933 2.37121636362591 -0.379664719104767 0.8219662 -0.5568898 0.1193541 180 181 172
4.24914226549298 2.36537487001934 -0.341665804386139 -0.2448834 -0.6338664 0.7336522 163 161 148
4.22444221990735 2.39269906969586 -0.37303751707077 -0.004343005 0.8433239 -0.5373881 162 163 143
4.20002386587293 2.36493391485729 -0.35830420255661 -0.4777702 0.3318653 0.8133886 180 182 174
4.23342672603757 2.33283192606487 -0.366855084896088 -0.09549085 -0.6671621 0.7387667 193 193 189
4.28032860773236 2.39877027960339 -0.371058225631714 0.4342467 0.8471754 -0.306143 166 167 150
4.27363476770551 2.38447064848461 -0.35635831952095 0.6392995 0.1089769 0.7611966 185 185 172
4.24305615442426 2.36939269991436 -0.341880768537521 -0.3231659 -0.3707208 0.8707066 151 151 138
4.27608100193174 2.37139422388592 -0.376684695482254 0.7821357 -0.5962238 0.1810554 165 164 149
4.244546210939 2.3945227334074 -0.342436730861664 0.2518934 0.9568422 0.1449227 137 143 132
4.21047613638074 2.35115677805462 -0.35662516951561 -0.2371401 0.001798477 0.9714738 206 164 183
4.22906789796979 2.33757621737042 -0.36153256893158 -0.05788746 -0.8157602 0.5754862 190 187 183
4.23478332775266 2.33928126783886 -0.362651944160461 0.3048226 -0.6865458 0.6601046 240 183 225
4.26613280790479 2.38700599165478 -0.340049773454666 0.6643697 0.4899421 0.5644197 160 165 161
4.26700750606687 2.3603636691145 -0.375572741031647 0.857874 -0.3706617 -0.3558963 170 171 160
4.26371619718702 2.39140922518292 -0.356402784585953 -0.4424332 0.8090283 0.3869444 150 153 140
4.22470906990201 2.38358110876599 -0.355290830135345 -0.4126571 0.7509863 0.5154937 150 157 144
4.22651783245237 2.37262470217266 -0.345046103000641 -0.4905291 -0.5094425 0.7070004 178 181 172
4.26258937137754 2.34292835684338 -0.361517727375031 0.682336 -0.3644459 0.6337166 190 190 186
4.25237432735593 2.39207643957653 -0.380309641361237 -0.1711666 0.8889325 -0.4248542 134 136 110
4.20619521158368 2.34888834448376 -0.355946898460388 -0.3640571 0.09212647 0.9268091 189 188 182
4.26718542593152 2.35766167135754 -0.373749136924744 0.854548 -0.3477232 -0.385793 170 171 161
4.25806746500165 2.39410013647595 -0.381021291017532 -0.3446162 0.8142475 -0.4671624 141 142 120
4.24572489278943 2.3386806914381 -0.363207876682281 -0.3184748 -0.3256614 0.890235 186 185 183
4.20685122030408 2.35965198965588 -0.352355301380157 -0.2607603 -0.4066803 0.8755656 185 180 170
4.27425745742948 2.38706523867169 -0.357559204101563 0.5801514 0.2584052 0.7724319 179 179 168
4.26327136772306 2.34270603151837 -0.3698351085186 0.8656245 -0.4009624 -0.2998723 178 178 173
4.26883111017377 2.35707230063 -0.361918032169342 0.5712774 -0.3107242 0.7596661 192 191 193
4.22826728838117 2.33274299593487 -0.368723154067993 -0.2730312 -0.8548383 0.4412544 190 191 186
4.2630934478584 2.35502643080273 -0.35947173833847 0.310885 0.02245226 0.9501823 185 185 178
4.24607328193814 2.39410764666119 -0.346024602651596 0.3030432 0.950841 0.06376785 139 143 128
4.24047646539838 2.32798380346813 -0.371725410223007 0.1207523 -0.6810816 0.722182 189 189 181
4.24481306093366 2.33487791510143 -0.364675670862198 -0.3566781 -0.4712632 0.8066546 191 190 184
4.27245602625043 2.38471526594677 -0.355924665927887 0.7685902 0.09971602 0.6319223 181 181 172
4.244501745874 2.33174223394909 -0.368033766746521 -0.2979562 -0.7244893 0.6215605 187 187 182
4.22395298498304 2.39483410807171 -0.358493238687515 -0.1667379 0.8634154 0.4761432 174 176 165
4.22012147920758 2.33969420881786 -0.361924409866333 -0.1321755 -0.8455246 0.5173179 179 179 165
4.21712563055188 2.37533051462689 -0.351888298988342 -0.2595005 0.4681154 0.8447055 160 163 148
4.23000190275342 2.36741346807995 -0.345750331878662 -0.4046371 -0.3989443 0.8228683 180 178 176
4.26290074604184 2.34140128584423 -0.369108647108078 0.854398 -0.4679969 -0.2257941 176 177 172
4.26995793598325 2.36546380014935 -0.383771508932114 0.641846 -0.763752 -0.06867705 169 168 157
4.2463253499809 2.32717210741558 -0.371447443962097 -0.1481349 -0.9018884 0.405775 183 182 177
4.20456061380536 2.34755403490582 -0.370279878377914 -0.7446519 -0.5638137 -0.3572223 150 153 129
4.26473913210065 2.39694673510113 -0.373493403196335 -0.1182041 0.990957 -0.06349911 158 158 142
4.25659970062406 2.3530884453825 -0.35595166683197 0.4372917 0.1761654 0.8818967 182 183 177
4.23413840549619 2.33135528059521 -0.367629021406174 -0.06066746 -0.6743221 0.735941 193 193 189
4.26923141496808 2.36476702185192 -0.37739634513855 0.7059729 -0.7030756 -0.08536405 166 166 154
4.2547983886543 2.39325518103161 -0.364275366067886 -0.1407919 0.9082389 0.3940555 168 170 154
4.22021684663923 2.35898489447155 -0.35110992193222 -0.2474275 -0.3936441 0.8853383 236 176 216
4.20691797750623 2.38965243788281 -0.363474756479263 -0.1903885 0.9730224 0.1303056 175 176 170
4.2209506990257 2.36925930471935 -0.348018705844879 -0.3293495 -0.08285931 0.9405654 187 181 174
4.22642145174176 2.34742063971081 -0.354423522949219 0.165614 -0.4120009 0.8960063 184 180 174
4.23811177032621 2.32464796991863 -0.380109488964081 0.2662793 -0.9638959 0.0002987891 162 164 160
4.25056341903836 2.39321381540814 -0.349546849727631 0.2789677 0.9600191 0.02324538 153 156 144
4.20949766653211 2.36801392527142 -0.351198881864548 -0.716488 0.4068986 0.5666379 151 154 146
4.23169211166532 2.33796913118878 -0.361562222242355 0.2451164 -0.7955992 0.5540216 220 178 206
4.22328577058942 2.39692456217327 -0.359338313341141 -0.1454494 0.8873101 0.437636 177 179 171
4.26727441566617 2.39247674437084 -0.353956520557404 -0.03475904 0.8990808 0.4364008 172 178 162
4.20780751722486 2.38820690603771 -0.371836602687836 -0.1839456 0.937998 -0.2938091 175 176 164
4.26175913828046 2.39158720465222 -0.35969415307045 -0.3050658 0.8382235 0.4520136 145 148 132
4.28386459367902 2.38931877108135 -0.366410315036774 0.8202228 0.1334351 0.556264 177 181 167
4.22647336738736 2.39367765875378 -0.371391832828522 0.04690494 0.8400396 -0.5404936 164 165 149
4.21215889471204 2.38537508936443 -0.357833504676819 0.2337244 0.4228528 0.8755389 178 179 165
