ply
format ascii 1.0
comment File exported by Rhinoceros Version 7.0
element vertex 500
property float x
property float y
property float z
property float nx
property float ny
property float nz
property uchar red
property uchar green
property uchar blue
end_header
3.22765272075463 2.01361762055433 -0.329339137738547 0.2615104 0.9428628 0.2064511 209 210 209
3.22041410973659 2.01612432870395 -0.327647238662938 -0.02031863 0.9894615 -0.1433634 204 206 205
3.22063485869705 2.01607758011465 -0.329985528319651 -0.01821163 0.9893045 0.1447239 204 205 206
3.21835570906124 2.01638268194778 -0.330498837073856 -0.03508935 0.982818 0.1812112 212 213 214
3.2213178512355 2.01510687173494 -0.330691396964146 -0.0005388266 0.9683676 0.2495275 209 210 210
3.22251248319959 2.01758303792082 -0.33348071062561 -0.1255308 0.7113819 0.6915041 212 211 210
3.21942183067656 2.01775909926244 -0.334011646083748 -0.09242852 0.7551261 0.6490312 208 209 204
3.23090765984173 2.01400394576193 -0.330446209852244 -0.08133207 0.7908227 0.6066173 207 207 205
3.22864603340671 2.01526543940641 -0.331440089116574 -0.01738049 0.6720741 0.7402799 204 205 202
3.22940367587921 2.01639564917354 -0.331848915401125 -0.03350915 0.6443815 0.7639696 202 204 201
3.22576451904736 2.01504247370549 -0.331458145462686 0.1839618 0.8143549 0.55044 210 210 209
3.22890127811143 2.02033208888061 -0.333283281188955 -0.07163678 0.4923111 0.8674663 224 224 225
3.22452623044117 2.01819218460097 -0.333535872725289 -0.1174247 0.5916841 0.7975722 221 220 220
3.22380676857958 2.02039727861871 -0.335102945457114 -0.204918 0.5283551 0.8239232 213 213 212
3.22781882442965 2.02121116373182 -0.334473067394986 -0.007204094 0.5014328 0.8651666 227 225 227
3.22463337161242 2.01555509685615 -0.332251528097387 0.02320668 0.8164336 0.5769728 206 205 203
3.22386057250808 2.01654297078687 -0.333234407479309 -0.101919 0.7172736 0.6892976 205 204 202
3.22894794568257 2.02522020541134 -0.337300890344615 0.08357599 0.5849035 0.8067856 218 219 219
3.22742156037822 2.02958337671279 -0.339473969369169 0.03221586 0.3768625 0.9257088 189 192 191
3.22547124474764 2.0308335495772 -0.339298036599643 -0.0676849 0.3517006 0.9336624 199 200 194
3.22667265762426 2.03166355025217 -0.339475955620364 -0.00394139 0.2467628 0.9690679 212 212 212
3.22719796687164 2.03195371911459 -0.339764807686291 0.02145851 0.2613317 0.9650105 213 213 213
3.21538473684743 2.01755627131459 -0.332975212284105 0.02887309 0.8755461 0.4822711 214 216 215
3.21943938989522 2.01836436469794 -0.334698943631255 -0.1181894 0.7135484 0.690565 218 219 218
3.21818099923066 2.01775052191855 -0.333934980190831 -0.0583281 0.8117555 0.5810773 211 212 213
3.21745329614957 2.01680750669303 -0.333669349366965 -0.0501239 0.8626425 0.5033244 204 204 199
3.21586284354757 2.01752444228921 -0.334430884600214 0.00497588 0.8065045 0.5912069 216 217 217
3.21532292289503 2.01796042791036 -0.334576447137326 0.00497588 0.8065045 0.5912069 214 214 214
3.217865963781 2.01787229955939 -0.335302924938446 -0.1443456 0.7292407 0.668859 218 218 219
3.21727631073741 2.02004514595488 -0.336498152782174 -0.1464693 0.6723731 0.7255765 211 212 211
3.22019302304532 2.0228904320234 -0.337349825457497 -0.2676855 0.6169299 0.740096 220 221 221
3.22489115398999 2.02267703437722 -0.336726523269851 -0.2208484 0.5761557 0.7869375 219 219 220
3.21971030815497 2.02122684355862 -0.336079163518062 -0.2089582 0.6070173 0.7667245 216 217 216
3.21969243318876 2.02214583390641 -0.337208367765901 -0.2587038 0.6276691 0.7342369 217 218 218
3.21793177921404 2.02197085648081 -0.33760494945482 -0.2727133 0.6674833 0.6928878 202 204 202
3.22121071118138 2.02624616828056 -0.340201020220069 -0.3306724 0.5206441 0.7871375 212 213 211
3.22074722590474 2.02883375439463 -0.340689338711966 -0.3817378 0.3707472 0.8466539 214 215 215
3.21966491171858 2.02567711320292 -0.341202060152414 -0.415206 0.4987087 0.7608506 213 214 212
3.21653123448635 2.02230281986349 -0.339224434023014 -0.2559763 0.7006931 0.6659619 217 218 217
3.215925655129 2.0223986892503 -0.338804874177571 -0.2052689 0.7170225 0.6661406 213 215 214
3.21496616148312 2.02294412021698 -0.341798270189893 -0.1353629 0.6875994 0.713361 210 209 206
3.21860459044057 2.02339848075344 -0.340381399410382 -0.4043167 0.5732604 0.7126713 212 213 211
3.21633294404985 2.02544040733904 -0.342605076487863 -0.2495343 0.3970062 0.8832433 207 207 206
3.21463690318828 2.01353344619274 -0.319796317767902 0.05941475 0.9974855 0.03863374 203 204 202
3.21618405284497 2.01340553978566 -0.320153068452949 -0.00682752 0.9795197 0.2012327 206 207 206
3.21493199130935 2.01365951810118 -0.3218275174115 -0.1271818 0.9559034 0.2647142 201 202 195
3.2119890392395 2.01456747387696 -0.31960108968076 0.24598 0.9450676 -0.2152696 197 199 195
3.21324554972736 2.01437186961188 -0.319377104613203 0.1542856 0.9794885 -0.1296078 198 199 195
3.21202943728847 2.01405196047957 -0.320270164113565 0.2031634 0.9573151 -0.2056025 199 200 196
3.21051880959394 2.01352941114848 -0.322235920980242 0.1740479 0.9797276 -0.09920231 190 193 189
3.2093751976292 2.01400508385295 -0.321579462235778 0.3403618 0.920028 -0.1941704 190 192 188
3.21346261329463 2.01294919854348 -0.322805568765277 -0.1736339 0.9514679 0.2540869 195 198 191
3.27611461877827 2.07839518085201 -0.358884623095654 -0.8462484 -0.2255055 0.4827121 205 207 209
3.21116022868546 2.01431051317323 -0.32514918639882 -0.001458857 0.9794256 0.2018004 196 198 193
3.21151689406398 2.01402141647093 -0.325273908793258 -0.0584144 0.9806712 0.1867399 195 197 192
3.2092675260594 2.01411852115386 -0.325038593897852 0.3745037 0.9207795 0.1091429 197 198 194
3.21292137910683 2.01428820964667 -0.325867136027109 -0.2686724 0.9430992 0.1959056 199 200 198
3.2112234797805 2.01414426132291 -0.327077407017959 0.03726499 0.9510487 0.3067862 189 191 180
3.21535847897598 2.01603418033871 -0.330120874232827 -0.1238152 0.9710509 0.2042792 212 213 214
3.21237332555345 2.01492747001314 -0.328890148368401 -0.04006781 0.9396219 0.3398606 212 213 214
3.2062022013891 2.0160705396842 -0.32450376352353 0.5970933 0.7951504 0.1059029 196 198 193
3.20442727086136 2.01798844777372 -0.32379667742802 0.6698524 0.7323042 0.1225897 201 202 199
3.20607227061937 2.01707142281169 -0.327910989537133 0.5639321 0.7841746 0.258942 200 202 201
3.20449598892127 2.01982774009848 -0.326486830416688 0.7029043 0.678952 0.2120131 197 199 196
3.20331347137385 2.02066851690932 -0.328147173172889 0.7119706 0.6636783 0.2294098 197 201 198
3.20533186045947 2.01868003594729 -0.327697097133636 0.6710985 0.6962445 0.2546967 195 197 193
3.20733370996497 2.01728718855871 -0.330577157561533 0.4594701 0.8430661 0.2795118 205 207 206
3.21264052838361 2.01619815466631 -0.331040015681863 0.07116519 0.9207599 0.3835843 218 219 221
3.2103331310871 2.01623322251923 -0.33071889927699 0.2048584 0.8987063 0.387763 211 212 212
3.20888611045431 2.01749207630222 -0.331887843564004 0.2860312 0.8809699 0.3769327 209 210 210
3.20641063952854 2.01927372553834 -0.333213683793005 0.5408441 0.7758101 0.3249715 201 203 202
3.20769648813152 2.01850993987043 -0.33340753146438 0.374889 0.8460924 0.3789273 210 211 211
3.20635848234628 2.01895800869601 -0.333910632573515 0.3951977 0.8376619 0.3770163 202 204 203
3.21593414250015 2.01647450752736 -0.331467951293158 -0.02233453 0.9296871 0.3676724 212 214 214
3.21427153634256 2.01646804326512 -0.331318916181223 0.01879109 0.9213818 0.3882043 213 215 216
3.21343690783213 2.01728274968311 -0.333786930991445 0.09896128 0.8352675 0.5408649 216 217 217
3.21404826962589 2.01766527856029 -0.335456101811712 0.06646226 0.8114003 0.5806998 214 216 215
3.2102168905402 2.01880879355428 -0.335076629364361 0.1075938 0.870051 0.4810767 216 217 216
3.21161453018306 2.02033008089832 -0.336086348622407 0.04425257 0.8534506 0.5192916 213 214 213
3.20755145579786 2.01894980954622 -0.337593467130471 0.2342136 0.8266894 0.5115942 212 214 212
3.21291237290618 2.01985651822876 -0.337023138814351 -0.03331686 0.7945338 0.6063051 212 213 213
3.21208662296095 2.0212028515549 -0.337853382745599 -0.04969599 0.7847037 0.6178758 214 215 215
3.21068985061135 2.02126417897757 -0.338382811023535 0.03409093 0.7738606 0.6324379 211 213 212
3.20940463256108 2.02115599380116 -0.339310414743526 0.09210914 0.7013634 0.7068276 209 210 208
3.21022637716834 2.02179406107361 -0.34120083631686 0.08945937 0.6338291 0.7682824 203 203 198
3.25038751348306 2.01733416037186 -0.326912902199159 -0.4272008 0.8941634 0.1340569 209 210 206
3.24558170685888 2.01568204094945 -0.326925989314152 -0.1334644 0.8896137 0.4367776 204 205 201
3.24650352142498 2.01633039765099 -0.328032251349217 -0.09476449 0.8748986 0.4749443 207 208 204
3.24475183432959 2.01733109087481 -0.329055662682834 0.0762416 0.802951 0.5911488 207 208 207
3.24819392072123 2.01698444686784 -0.328995088674554 -0.1731867 0.9217396 0.3469907 210 211 208
3.2426829428088 2.01863141382284 -0.329170047893566 0.1362139 0.7445231 0.6535527 208 210 209
3.24291495847729 2.01983910346104 -0.33030757139134 0.2096722 0.8765458 0.4332492 207 210 208
3.24477030948804 2.01937622271439 -0.330740873655294 0.21885 0.8580863 0.4645347 206 209 208
3.24288570573007 2.02071604147829 -0.331627080184089 0.1795147 0.9105181 0.3724666 204 208 207
3.24418333435701 2.02031727241956 -0.333107543042302 0.2015129 0.8855024 0.4186623 197 201 200
3.24953624481648 2.01874721431323 -0.334279026841206 -0.2424554 0.8465022 0.4739718 203 204 202
3.24317030349961 2.02033678351153 -0.337015008811008 0.1465064 0.8682567 0.4739895 211 211 209
3.24360296356988 2.02080408505622 -0.33723893222685 0.06693137 0.7360412 0.6736198 206 207 207
3.24712976595433 2.01993003777425 -0.336748049308256 -0.08219041 0.7586122 0.6463376 207 207 207
3.24827608016922 2.0191356450358 -0.336594041226725 -0.1520947 0.7935259 0.5892231 202 202 200
3.23903609054936 2.0216825276537 -0.331903340290123 -0.1460561 0.8964826 0.418314 204 208 207
3.23930301160617 2.02400428223391 -0.337695441541455 0.05790238 0.6008269 0.7972794 214 215 215
3.23992101903831 2.0250582430123 -0.338049165489271 0.05262226 0.5140772 0.8561282 212 214 213
3.23729704531122 2.02071083571954 -0.333557852096343 -0.2352153 0.8376901 0.4928988 203 206 204
3.23509029048322 2.02111542111574 -0.336633110499512 0.1364273 0.6793583 0.7210131 206 206 203
3.23790016978399 2.01974471945146 -0.336892262397058 -0.09908327 0.8161386 0.5692981 207 207 206
3.23477058273011 2.02629574848913 -0.339188911959027 0.08216574 0.5122581 0.8548921 218 219 219
3.23430571930267 2.02194968543188 -0.337430343594381 0.1354827 0.6491728 0.7484779 203 204 203
3.2423218887268 2.02453349086432 -0.338601865144175 -0.02308303 0.5026901 0.8641585 206 207 205
3.23827037301258 2.02967441082868 -0.341799294965139 0.08771441 0.4042442 0.9104356 210 211 212
3.23794515142128 2.02822675162952 -0.34153104109099 0.03989318 0.4474029 0.8934423 215 214 215
3.23216655402646 2.03298748973754 -0.340687165713086 0.2165648 0.1663767 0.9619867 203 205 205
3.23006933987027 2.03069070859674 -0.339828211981072 0.1958422 0.2715644 0.9422837 205 207 206
3.23120016248798 2.02896192866111 -0.340527593596287 0.2139045 0.3234745 0.9217424 205 205 206
3.23074443310324 2.03133087295404 -0.341320737652297 0.20824 0.1952003 0.9584013 203 205 204
3.23164341440065 2.02854144494954 -0.341442219093391 0.2245 0.3126407 0.9229602 204 205 206
3.23434259228216 2.02886883230685 -0.341065372035989 0.1416391 0.3032293 0.9423324 207 208 209
3.23489477735517 2.02907583684165 -0.341583562721928 0.1341546 0.3013747 0.9440211 206 208 209
3.23423190324894 2.03168508396218 -0.341390933827827 0.1716147 0.191055 0.9664607 205 207 207
3.23453121974984 2.03297162566757 -0.341875122491051 0.1622761 0.2178772 0.9623908 206 208 208
3.23520327450225 2.03189635797925 -0.341879075390663 0.1541473 0.1730646 0.972773 209 210 210
3.23145569484356 2.02737859220249 -0.340394565546607 0.2176646 0.4178488 0.882057 206 207 206
3.22808265196602 2.02948743552563 -0.339598117727112 0.1476118 0.3890266 0.9093234 193 196 196
3.23317507135551 2.027093730353 -0.340024178626705 0.1489152 0.5111953 0.8464653 201 203 203
3.23811742817715 2.0314462431166 -0.342521228879793 0.1449924 0.355809 0.9232427 207 208 210
3.23633540944571 2.03031976916205 -0.342084932653989 0.1146228 0.2780778 0.9536951 209 210 211
3.20172605429065 2.03350255212314 -0.341629230500023 -0.05221432 0.331643 0.941959 211 212 211
3.2014189942675 2.03385781007263 -0.341938532855622 -0.05221432 0.331643 0.941959 210 210 210
3.20065293547684 2.0333762341109 -0.342707065738512 -0.1035931 0.3419097 0.9340055 210 211 211
3.19940971387378 2.03637104201443 -0.34192132644251 -0.143255 0.2643929 0.9537161 193 193 190
3.22577694639652 2.03829244013393 -0.341950649294526 -0.2436426 0.4505048 0.8588852 224 223 224
3.22306280749556 2.03454400780834 -0.342834589669932 -0.406658 0.4102577 0.8162829 210 210 213
3.22049825305645 2.03267291004622 -0.342998921094996 -0.4236851 0.420023 0.8025408 210 211 213
3.21921102410909 2.03347524254986 -0.344394948116337 -0.3693444 0.4942118 0.7869812 206 208 210
3.21917464015454 2.03601206954617 -0.34598480493445 -0.3223659 0.3922239 0.8615339 207 208 212
3.21795947040725 2.03533902388634 -0.346640216824991 -0.1760397 0.4342512 0.8834229 209 209 212
3.2077167458065 2.02714908886197 -0.341599082089579 0.2233288 0.2569272 0.9402726 203 204 206
3.21043251416905 2.02672194343321 -0.342215941343391 0.1575209 0.2287963 0.9606453 204 205 204
3.20968658570185 2.02587766054952 -0.342312189956592 0.1720555 0.2854759 0.9428151 203 204 203
3.20579723006014 2.03188757289051 -0.342081001299742 0.1584779 0.2065041 0.9655262 206 207 207
3.20838038068209 2.03225881860045 -0.342096968951722 0.2385284 0.2655281 0.9341301 203 204 204
3.20748222094903 2.02847401547549 -0.341188044709623 0.2217316 0.2173646 0.9505723 205 206 208
3.21638587871745 2.03344341487077 -0.34659642608618 -0.1871538 0.457761 0.8691538 203 204 205
3.2159841932953 2.03216854993317 -0.345620689480614 -0.1514435 0.4897709 0.8585973 201 203 201
3.21478598837019 2.02524192264356 -0.342416590263225 -0.1430287 0.4177124 0.8972509 207 208 206
3.21346851892091 2.02543398534863 -0.342903205375903 -0.03948086 0.3389398 0.9399793 203 204 202
3.21141367479653 2.03148662669312 -0.343019780342002 0.2424743 0.3731813 0.895512 205 205 205
3.2124870734417 2.03145269993834 -0.344763893055437 0.200833 0.3842224 0.9011322 200 201 202
3.21245829184128 2.03231679468767 -0.34555345020787 0.2185617 0.4279623 0.8769715 197 198 199
3.2156300435689 2.03487451956916 -0.347444826356717 -0.1425836 0.3687532 0.9185265 198 199 200
3.21128432931371 2.043246833639 -0.348097878563589 0.2755333 0.605746 0.7464269 206 207 208
3.21079443376519 2.0435541410669 -0.348923306009268 0.2361773 0.656768 0.7161537 213 214 212
3.2141213036574 2.04171498876407 -0.347910217865633 0.1664129 0.5686398 0.8055778 219 220 218
3.20830627385149 2.0424297494921 -0.348789325821128 0.3190033 0.5816608 0.7482698 208 209 207
3.21086247759202 2.0440427878648 -0.349941770341344 0.1007865 0.723838 0.6825691 206 207 206
3.21111067300481 2.04440139250721 -0.351986187696977 -0.02693947 0.7385033 0.6737115 207 208 207
3.20956425946361 2.04510121465165 -0.35282387185526 0.07378738 0.7569391 0.6493063 210 211 211
3.20713424993074 2.03887928685964 -0.344692820928549 0.2680812 0.3866005 0.8824243 210 210 211
3.20318050659973 2.03715304922893 -0.342398020635208 0.04363817 0.3800566 0.9239333 191 192 188
3.20365946522226 2.04118233841393 -0.344709722372018 0.1540899 0.485612 0.8604866 216 216 218
3.20151746054852 2.02321604151819 -0.330174587765146 0.6693103 0.7312613 0.1314556 201 202 202
3.1987162280404 2.02548191929821 -0.33203378536476 0.5903125 0.8001937 0.10593 206 207 208
3.20115760178377 2.02432135073055 -0.332526124016618 0.6563814 0.7439429 0.1253492 202 203 203
3.196289509616 2.02735935689294 -0.332114915987444 0.5456855 0.8372705 0.0347199 203 204 204
3.19469880244651 2.02884638933215 -0.332179757981098 0.6004227 0.7996505 -0.00718918 201 202 202
3.195602041719 2.02889560337473 -0.333698197568511 0.545636 0.8379848 -0.00792817 202 203 202
3.19767292920995 2.02568903314424 -0.33420954097159 0.5449887 0.8333167 0.09257746 207 208 207
3.19809094872227 2.02712564845789 -0.334500833765889 0.5366814 0.8406912 0.07219017 205 206 206
3.19446073040741 2.02842643862292 -0.336147827741543 0.5106584 0.8597381 -0.00885371 199 201 198
3.19723484746353 2.02827494586816 -0.335146422807987 0.4930656 0.868511 0.05074396 204 205 204
3.19716721528723 2.02719330401857 -0.335786197117017 0.4930656 0.868511 0.05074396 208 209 207
3.20312193134982 2.02279182066839 -0.333527033590593 0.6354955 0.7452775 0.2017593 199 202 201
3.20151418462446 2.02501923490126 -0.334794747518277 0.5680412 0.7852125 0.2465167 203 204 204
3.19977733973051 2.02646177770284 -0.33822648863576 0.4104362 0.8080308 0.4226444 211 211 209
3.19772197460586 2.02696082927002 -0.336678613772762 0.4928713 0.8596353 0.1345548 207 208 205
3.19660537112556 2.02777601538253 -0.33845326352695 0.3698647 0.8480109 0.3795756 214 214 213
3.19270923971257 2.03036563783387 -0.334167632688482 0.5791306 0.8100512 -0.0917864 197 198 198
3.19190551896136 2.03156035103603 -0.334213709947268 0.6019806 0.7846328 -0.1482256 199 200 200
3.19170881285415 2.03102490291037 -0.334734068865204 0.5982228 0.7913257 -0.1262262 195 196 195
3.19311709211379 2.02940113592036 -0.338418371926708 0.5194939 0.8215739 0.2348241 207 208 207
3.19775849781739 2.03034076644349 -0.341944875017081 -0.03693744 0.7482207 0.6624208 206 206 204
3.19798226435558 2.03215651633012 -0.343855500589529 -0.1440969 0.4762871 0.8674023 204 205 205
3.19588582986659 2.03207652873444 -0.344124530724808 -0.1038696 0.6071669 0.7877559 207 208 206
3.19313791542422 2.0341566184267 -0.344006054666672 0.01586406 0.7593238 0.6505196 208 209 209
3.19286832425031 2.03562979238595 -0.343683505368579 0.00993387 0.6932911 0.7205893 210 211 212
3.19145048924722 2.0347828926717 -0.344715393530038 0.1129595 0.7288821 0.6752562 210 211 210
3.19377567552655 2.03164880812671 -0.345087529927171 -0.02885929 0.7525178 0.6579393 206 206 205
3.18927765895004 2.03362982579772 -0.346149212246208 0.007615833 0.6834133 0.729992 208 208 206
3.20535303983736 2.02127960340482 -0.338118391125023 0.4752836 0.6873308 0.5492557 202 203 201
3.20501918877887 2.02690935121553 -0.340940972907186 0.3916674 0.3150186 0.8644999 201 202 201
3.20519846201492 2.02360104677316 -0.340834498203226 0.4033809 0.5066864 0.7619401 198 198 194
3.20693128093244 2.0253708568819 -0.341811987950594 0.2549964 0.3400545 0.9051739 202 202 200
3.20649367507341 2.02638960660941 -0.341396804408864 0.2023619 0.2635395 0.9431843 203 204 204
3.20540445333235 2.02400006051069 -0.34122650993489 0.4033809 0.5066864 0.7619401 198 197 194
3.20190586644569 2.03034506872873 -0.341819630229652 0.1754456 0.366023 0.913918 212 212 211
3.19879816592069 2.03208075747007 -0.343736817629727 -0.125124 0.478204 0.8692899 207 207 206
3.18967116573748 2.04362444791221 -0.350319824030442 -0.1743049 0.4875495 0.8555193 210 210 211
3.19089562630732 2.07028425934692 -0.349076038259219 0.2065974 0.00078629 0.9784257 200 202 203
3.19045296835863 2.06769211856735 -0.349146084606779 0.2823354 -0.042314 0.9583821 202 202 204
3.19006234226148 2.06693742952374 -0.349268224256008 0.2679268 -0.09967387 0.9582695 200 201 202
3.18592298709365 2.06629569581602 -0.348679843624539 0.1382177 -0.2026126 0.9694555 201 203 204
3.18545249759577 2.06486341655723 -0.349070775701515 0.04888995 -0.2782578 0.9592614 203 205 206
3.19287225947718 2.06019195413981 -0.352885431517922 0.2893304 -0.1854376 0.9390957 203 201 206
3.19154816864727 2.05884436753648 -0.352697526400127 0.1396936 -0.3192057 0.9373332 202 202 205
3.19040288034563 2.05706055366518 -0.353485431185366 0.02017843 -0.2473396 0.9687187 203 203 205
3.19078138987497 2.06463068583825 -0.350220563047338 0.3541697 -0.2801321 0.8922386 200 203 204
3.19236594193658 2.06589590493686 -0.350327653731664 0.4087508 -0.2343634 0.8820412 199 200 202
3.19208469857896 2.06766092090148 -0.349638173894795 0.3560593 -0.1056719 0.9284693 198 199 200
3.19371606098799 2.069426748169 -0.350023504640762 0.3931799 -0.09834229 0.9141873 201 199 202
3.19180440430048 2.06300204871823 -0.351194184796598 0.423082 -0.3264355 0.8452464 198 199 202
3.19263996472322 2.0643972042321 -0.351598962926002 0.4511551 -0.256932 0.8546607 198 198 201
3.19532687867175 2.06570197084452 -0.352527962196885 0.4658247 -0.2167405 0.8579224 199 199 202
3.19406100602213 2.06731680194621 -0.351196060824486 0.4558211 -0.2197999 0.8625051 198 199 201
3.18969826387075 2.06408443508978 -0.349195065617441 0.2713842 -0.2773275 0.9216508 199 202 203
3.18939649287972 2.06185643942213 -0.350257573034425 0.2456401 -0.4117257 0.8775778 200 202 204
3.18843380351781 2.06082608766094 -0.350933230021955 0.1920373 -0.4854071 0.852937 202 204 205
3.18891168925361 2.05994833886243 -0.351896734296129 0.1925177 -0.4815855 0.8549926 207 209 210
3.18658781835979 2.05977327813008 -0.351551285589959 0.2107422 -0.4660314 0.8593035 201 202 203
3.19169074123033 2.06008331232931 -0.351839075093822 0.2237676 -0.3027474 0.9264297 203 204 207
3.19313200667181 2.06148831790093 -0.352639560237835 0.3663997 -0.2206569 0.9039147 202 203 207
3.1825012275607 2.06186899169039 -0.349509144141097 0.1107139 -0.2392682 0.9646207 199 202 202
3.18357537787221 2.05911352723032 -0.350805118204494 0.316505 -0.3296936 0.8894531 199 200 202
3.18237002991203 2.057194661167 -0.350729890941503 0.3522335 -0.2827121 0.8921914 199 200 202
3.18157665747505 2.06074584040476 -0.349766766544816 0.1958608 -0.2226195 0.9550284 201 204 205
3.18157000792102 2.05824297820633 -0.350071980524617 0.2980341 -0.2577813 0.9190889 198 201 202
3.17848599472342 2.05746410612262 -0.349489700487831 0.134733 -0.2467701 0.9596622 201 203 204
3.17560869476288 2.05519759825041 -0.35007248831648 0.1040866 -0.3512678 0.9304713 205 206 207
3.17626436430554 2.05403715325696 -0.350521611202836 0.09720156 -0.3610119 0.9274817 201 203 204
3.18097833588901 2.05334463971121 -0.351432622296275 0.2209503 -0.3853135 0.8959433 201 203 204
3.18083778505944 2.05703753640024 -0.350039977078667 0.2393883 -0.2630904 0.9345998 201 203 205
3.18015200453043 2.05412600308209 -0.351416754916064 0.2003156 -0.3677611 0.9080889 203 203 205
3.17897159452466 2.05470946453287 -0.350897810486584 0.1243881 -0.346056 0.9299316 202 202 204
3.17912786603533 2.05298867062487 -0.351797828028989 0.1723955 -0.3855649 0.9064323 202 201 203
3.18829325408372 2.05399049498422 -0.353867080338638 0.09172489 -0.09966132 0.9907846 203 204 206
3.18694189727113 2.04685392484883 -0.353132893284192 -0.09001164 0.3741499 0.9229895 203 204 204
3.18715542694244 2.04571118747231 -0.352395719123658 -0.1179381 0.4225817 0.8986185 206 207 207
3.18437865530546 2.05140302463774 -0.353479990740563 0.1336945 -0.236461 0.9623991 199 202 203
3.18829661212366 2.0511428705449 -0.35357269711039 0.006656097 0.09955037 0.9950103 205 207 208
3.1869085086055 2.05206401823562 -0.354076242363977 0.08109888 -0.06676685 0.9944673 206 207 209
3.18466577993153 2.04878777586996 -0.35344013120621 0.02969368 0.1499957 0.9882407 205 206 206
3.18320642015411 2.04967744279602 -0.35378280754215 0.1145355 -0.04325887 0.9924769 205 206 207
3.1851421355219 2.05738876612346 -0.352088155301162 0.3470992 -0.3370954 0.8751507 201 203 205
3.18496106993671 2.0581812870701 -0.35198539295161 0.3398617 -0.3454791 0.8747218 199 201 202
3.18612977188811 2.05805339650302 -0.352800106163651 0.3237709 -0.3369555 0.8841003 202 205 205
3.18871147840557 2.05731096532079 -0.353305134535526 0.07078588 -0.3152462 0.9463663 204 207 208
3.18839072804183 2.0565739294185 -0.35397040772229 0.08743308 -0.2041275 0.975032 199 201 202
3.18839457077679 2.05553651245762 -0.353709620679572 0.08923355 -0.1922419 0.9772822 201 202 204
3.18555958994842 2.05686508599912 -0.353495040576352 0.3414257 -0.2759965 0.8984734 200 202 203
3.18240172224341 2.05276110875917 -0.352352192960846 0.2390625 -0.3580414 0.9025826 200 203 204
3.18006901969496 2.05149609524541 -0.352825005378746 0.2095615 -0.3321086 0.9196672 196 198 198
3.18254547400961 2.05098098616324 -0.353979006322821 0.2132746 -0.2237445 0.951027 203 205 204
3.20038321718329 2.05119730428077 -0.354003871705971 0.3657466 0.03002124 0.9302301 194 196 197
3.19773663885734 2.05492586768865 -0.353151167842878 0.1932794 0.04175111 0.9802551 201 203 204
3.196937343614 2.05410552932591 -0.353507441635418 0.2011326 0.0594594 0.9777578 198 200 201
3.1999333020868 2.05385208061244 -0.354383519507466 0.2777023 0.05885099 0.9588628 201 202 203
3.1987079630582 2.05427092556072 -0.354182930234548 0.2383113 0.05600518 0.9695727 201 202 204
3.207622951254 2.05144492274567 -0.356838593025137 0.1915668 0.1257417 0.9733916 203 205 206
3.20778962668811 2.05532304319264 -0.356240968703655 0.1554665 -0.03115433 0.9873497 203 203 204
3.20460374647175 2.0557540067162 -0.357015575440902 0.2744562 0.1439305 0.950767 201 202 201
3.2018561559041 2.05330351682361 -0.354811419445496 0.3575624 0.04584424 0.9327634 197 199 199
3.20200538715723 2.05244264273208 -0.355033088942965 0.3314138 0.03280567 0.942915 195 197 196
3.20370362553534 2.05166621981345 -0.356303370879267 0.3278525 0.05988164 0.9428292 198 200 200
3.2011065071272 2.0552630941616 -0.354918494535732 0.3313966 0.09449875 0.9387472 199 200 201
3.20632435921493 2.05257438948286 -0.356874449535885 0.2730538 0.0165387 0.9618565 203 205 205
3.20575775010432 2.0503744345572 -0.357253021579387 0.2709812 0.08319443 0.9589827 200 201 201
3.19538101915225 2.04855623404464 -0.352451285453411 0.0422637 0.2622823 0.9640653 207 208 208
3.19421004737324 2.04974142869758 -0.35291775351103 0.0007053883 0.1789421 0.9838594 209 210 210
3.19971980376472 2.04989227039755 -0.353514781321747 0.2870934 0.05568723 0.9562826 197 199 199
3.19585708330652 2.04833753803953 -0.352180511494619 0.0422637 0.2622823 0.9640653 211 211 212
3.19739830949313 2.05114318370123 -0.353149142937474 0.1847182 0.1028813 0.9773917 202 204 204
3.19755972293864 2.0644637650197 -0.353186384201168 0.4928757 -0.2103085 0.8443008 202 198 204
3.19695190549403 2.06213482252247 -0.352846887104085 0.4373264 -0.1542724 0.8859716 204 197 205
3.19648116458609 2.06009425894224 -0.353873189620954 0.364494 -0.05004471 0.92986 206 202 208
3.19836790781666 2.06180113997793 -0.354984864282374 0.605177 -0.1533504 0.7811814 201 191 201
3.19385522338402 2.05437532204422 -0.353274694747379 0.0125272 0.007020741 0.9998969 202 203 205
3.19475472563283 2.05610775547174 -0.352869924188399 0.09906272 -0.05444703 0.9935905 206 207 209
3.19409985939405 2.05956046180946 -0.353265416774091 0.2923021 -0.1127395 0.9496574 204 201 206
3.19556719063135 2.05942538993788 -0.353987095067815 0.2444019 -0.039689 0.9688615 203 196 204
3.19303436442924 2.0557707000296 -0.353338678299818 -0.00104628 -0.06201562 0.9980747 206 204 207
3.19282587602637 2.05834044829012 -0.35353375636746 0.1095526 -0.2157123 0.9702919 205 203 206
3.19890928898406 2.05756073443392 -0.354118500235993 0.2790676 0.06263012 0.9582269 203 197 204
3.19517736558081 2.06331675163326 -0.352975781444274 0.4363473 -0.2286349 0.8702455 201 202 204
3.20161723674969 2.06408754714561 -0.359022956849879 0.6587505 -0.2543245 0.7080726 191 191 192
3.20140139955274 2.06391257061215 -0.358792154358266 0.6617134 -0.24898 0.7072088 191 191 192
3.1948189452103 2.05309318521152 -0.353738448852943 0.04588159 0.08040765 0.9957055 199 201 203
3.19427073794879 2.05175335109077 -0.35364926963495 0.01190994 0.1105844 0.9937954 204 205 205
3.19108513927265 2.05290107978184 -0.352792982324294 -0.06580883 -0.01071363 0.9977747 203 205 204
3.19199646841066 2.05136928813657 -0.353487397351953 -0.09347349 0.09923203 0.9906642 205 207 208
3.19214216702588 2.05546127514593 -0.353072715545047 0.00317214 -0.08927731 0.9960018 208 207 209
3.19011319272073 2.05386126033586 -0.354200588118253 -0.02591347 -0.06144749 0.9977739 203 205 207
3.19028893673925 2.04987105246679 -0.35368006622278 -0.0680712 0.1254723 0.9897591 204 206 206
3.18565053980435 2.0344752978215 -0.341159938066862 0.3578819 0.9107153 0.2061995 200 202 200
3.17997320429005 2.03612234960759 -0.342221034289672 0.3211083 0.945885 0.04680795 206 208 206
3.19063895591434 2.03772931442006 -0.346282013889434 -0.1631901 0.43777 0.8841529 212 212 212
3.18876588677887 2.03734435704731 -0.347486668606694 -0.1767532 0.4453169 0.8777534 211 212 212
3.1879332597206 2.03665731972953 -0.347496858618258 -0.192287 0.4504324 0.871858 207 208 208
3.18775499286225 2.03860838422494 -0.348326225190898 -0.2589192 0.4198586 0.8698733 211 211 211
3.18539273861742 2.04191017621105 -0.350111502342387 -0.201731 0.4507864 0.8695379 207 207 208
3.18831717037417 2.04198690150193 -0.349100865084901 -0.2179849 0.4672392 0.8568373 210 211 210
3.18711892134175 2.03979471116642 -0.348774203739264 -0.2240105 0.4254519 0.8768181 205 206 205
3.18242582709335 2.03890435687999 -0.348910429635293 0.1070596 0.6793975 0.7259182 206 208 207
3.18415715742439 2.03794818116034 -0.34927845741527 -0.2199644 0.4158795 0.882417 196 198 197
3.18343881115005 2.0395792609992 -0.349109576848582 -0.206402 0.4240818 0.8817896 204 206 205
3.18254880632775 2.03739458954369 -0.349476134634087 0.1026332 0.7090112 0.6976888 198 200 198
3.17485743068357 2.04285727622684 -0.349102170632718 0.5362245 0.5745391 0.6183591 200 202 199
3.17774258680101 2.04870113822753 -0.352171095815875 0.2661223 -0.03934767 0.9631358 199 199 198
3.17624632203277 2.04691858535511 -0.351686561144572 0.1834566 0.1095777 0.9769014 199 200 198
3.17741456167439 2.05224955466868 -0.351935468505032 0.1298711 -0.2371439 0.9627545 202 198 200
3.17278856149532 2.04524149634238 -0.350038712163661 0.4262924 0.4511323 0.7840628 198 199 196
3.17843929688322 2.0451841213439 -0.351772190021462 0.2076825 0.2670431 0.9410399 204 206 205
3.18630797936975 2.04503481709379 -0.352100788575049 -0.1097013 0.4353781 0.8935388 203 204 203
3.18266591579371 2.04826086485919 -0.35436473961722 0.1135809 0.07572509 0.9906387 202 203 202
3.17917972231307 2.04027346968323 -0.35107122186517 0.2776444 0.5664249 0.7759358 201 201 199
3.1807218598314 2.0425897278224 -0.351047342037681 0.1100388 0.3794052 0.9186638 204 205 204
3.17827976216565 2.04197807134829 -0.35189715443145 0.1531162 0.3767643 0.9135667 201 202 199
3.17922700080272 2.04942661329978 -0.352741898598911 0.2571406 -0.1112598 0.9599479 198 200 199
3.18284364470278 2.04911853649213 -0.354854670547436 0.107403 0.02322744 0.9939442 204 205 204
3.22007781693172 2.03881240363021 -0.347091900993971 -0.3091269 0.215992 0.9261684 205 206 208
3.21728146832264 2.03699147532888 -0.347769920946811 -0.1653658 0.2882957 0.9431542 199 200 202
3.21730887943898 2.03790459399508 -0.34774779088038 -0.1765003 0.2250381 0.9582304 198 199 201
3.21552351102495 2.0467431377817 -0.3537589410163 -0.2243889 0.7177712 0.6591313 202 205 203
3.21467839019246 2.04755275422482 -0.354374821521673 -0.1942115 0.6160432 0.7633955 206 208 206
3.21726414106225 2.04929159895032 -0.35422132892159 -0.2127607 0.3293955 0.9199084 208 209 208
3.21128958020986 2.05448683519929 -0.357552061902996 0.05529936 -0.002414635 0.9984669 201 203 203
3.20895683437267 2.05124807203353 -0.356446816145046 0.07873376 0.1741942 0.9815586 203 204 207
3.20922358572262 2.05402054195628 -0.356887335982392 0.07218028 -0.03997727 0.9965901 200 201 203
3.21053081645349 2.05181575379449 -0.357510153689901 0.02231864 0.06642119 0.997542 200 202 204
3.21430018538361 2.05238762042916 -0.358204078164175 -0.1732526 0.1141927 0.9782349 196 200 202
3.21246173212824 2.04905072714639 -0.357200087570002 -0.1209987 0.4128476 0.9027271 201 201 202
3.21276375947622 2.04948665270882 -0.35742205312635 -0.1336898 0.3643089 0.9216323 199 200 200
3.21212279764427 2.0520622206911 -0.35804341742432 -0.05504994 0.1529317 0.9867023 196 199 201
3.21103945920859 2.05676859698917 -0.357693497249266 -0.01207744 -0.09004778 0.9958642 205 206 207
3.21040560280685 2.05586504536322 -0.357540630498036 0.03358414 -0.06989539 0.9969888 201 202 203
3.27643343986354 2.07881106692074 -0.3568446764419 -0.9837093 -0.1127737 0.1399934 202 204 206
3.27072810721813 2.07535738011239 -0.361468656315667 -0.2510905 -0.0541774 0.9664463 209 209 210
3.17008822538395 2.06308673914282 -0.344071182796484 0.450464 -0.4081293 0.7940482 196 199 198
3.18363901076982 2.06374160773422 -0.349188008612794 0.02718665 -0.2871115 0.9575113 203 205 206
3.27239119159689 2.08363306837671 -0.357296157162012 -0.5929235 -0.5906238 0.5473621 212 215 218
3.27255901891984 2.08370937227928 -0.355328685803642 -0.6594387 -0.525702 0.5373806 209 213 215
3.17645367285826 2.06334604410188 -0.348027292627964 0.3999685 -0.4441434 0.8017243 196 198 199
3.16777506798384 2.07411543602763 -0.321199569552765 0.8636866 -0.3269619 -0.3835902 159 161 151
3.16934474090928 2.07481315759214 -0.321820335104153 0.8766285 -0.3354375 -0.3449699 142 145 126
3.16722579097202 2.08140404839661 -0.328468913691749 0.9051054 -0.3943921 -0.1588683 168 169 159
3.1672519736069 2.08119711395314 -0.328670907718555 0.9022742 -0.4069723 -0.1423898 169 170 159
3.16410945711596 2.07699431284861 -0.330595709759996 0.8610717 -0.5072753 -0.03503253 171 171 165
3.16330625705261 2.06146644762321 -0.326002088023925 0.9795185 0.1168302 -0.1639948 178 179 171
3.16189230120897 2.06628834306571 -0.328739873082207 0.9837594 -0.05451277 -0.1710141 171 173 167
3.16251406997371 2.0625954425561 -0.330610103745645 0.9897211 0.1004418 -0.1018014 178 179 175
3.16329979530465 2.07228990396695 -0.329587955454162 0.9308544 -0.2890489 -0.2235192 178 179 173
3.16723550661131 2.08230447624281 -0.329534143209905 0.8924878 -0.446808 0.06187155 164 166 155
3.16289541624171 2.07255899916634 -0.33293690410282 0.9506912 -0.3072462 0.04226106 180 181 174
3.16135993653204 2.06341292121976 -0.334066414527839 0.9929057 0.04066245 0.1117356 177 179 173
3.16191288578567 2.06659633471573 -0.337489459849569 0.889421 -0.01139304 0.4569469 183 182 175
3.17057226026577 2.06891655722639 -0.340917836326355 0.1385545 -0.1776827 0.9742851 194 197 195
3.16975956741325 2.0682889047737 -0.341381393228818 0.1200955 -0.2617471 0.9576354 197 199 198
3.16876956338358 2.06673923730321 -0.342181095085188 0.1537087 -0.3936716 0.9063092 199 200 201
3.16648073447887 2.06866643592961 -0.341371459182632 0.1770185 -0.1574524 0.9715314 196 198 197
3.16712613296355 2.06751310447931 -0.341142056322859 0.1367124 -0.2182044 0.9662797 195 198 197
3.16677800698701 2.07015319885092 -0.34080118933246 0.1947636 -0.05211265 0.9794649 197 199 198
3.1629193480288 2.06357980528618 -0.339078569619365 0.7428153 0.1109306 0.6602423 191 193 192
3.16353873531436 2.06690596342698 -0.340308950176764 0.6027434 0.0118839 0.7978466 193 195 190
3.16302947290603 2.06569843410314 -0.340648398504784 0.6122313 0.0197863 0.7904311 195 195 192
3.16606975455907 2.06428195788669 -0.341844404954234 0.3908091 -0.2016485 0.8981126 197 199 197
3.16602821355419 2.06190958660747 -0.341864044666397 0.5880563 -0.06447676 0.8062459 198 200 200
3.16587461998274 2.06663294839109 -0.341192548315131 0.3325018 -0.1871518 0.9243466 195 198 196
3.16561250090946 2.06614442232912 -0.341207974634334 0.3342663 -0.2228485 0.9157535 194 196 194
3.16435589751817 2.065308060468 -0.341060491630989 0.5279095 -0.06813084 0.8465635 195 196 194
3.16750462048278 2.0801842564816 -0.33472563671881 0.79076 -0.5834812 0.1850628 173 174 166
3.16847034296359 2.08342096905766 -0.336500188547502 0.7779577 -0.3717906 0.5065112 176 177 170
3.16607211938777 2.07982726955951 -0.334909801027668 0.8079757 -0.5664911 0.1620585 173 173 165
3.16505289784959 2.07832603938033 -0.335196583206741 0.8147498 -0.5629233 0.1389252 180 182 175
3.16589762158543 2.07758002276998 -0.336755093799541 0.7740533 -0.5877619 0.235324 181 184 180
3.1676264431903 2.07910215994439 -0.337029669019973 0.6701862 -0.625559 0.3994075 184 187 183
3.16939303455536 2.0804236192168 -0.339327234488784 0.629026 -0.57161 0.5268664 188 190 187
3.17250584301959 2.08085485268188 -0.341263873366223 0.4565852 -0.398546 0.7954187 189 191 189
3.1701821678644 2.07812455263078 -0.341860820427244 0.431807 -0.3385401 0.8360223 194 195 194
3.16502591261924 2.07688427190092 -0.339894132324712 0.6019699 -0.5515778 0.5774029 190 191 190
3.16632138105519 2.07662549337354 -0.340739853547935 0.5926319 -0.539422 0.5981733 192 194 193
3.16631488498985 2.07682038173545 -0.341033093643631 0.5475782 -0.4790348 0.6860639 192 194 192
3.16529066746297 2.07405266814874 -0.341214786817766 0.5420839 -0.292673 0.7877103 195 197 195
3.16911351634692 2.07690894521063 -0.341809824739939 0.442534 -0.3629673 0.8200112 195 197 196
3.16968416318159 2.07608979067579 -0.342640758394536 0.3387973 -0.1739284 0.9246433 200 203 201
3.16765643546259 2.07577711121622 -0.341830276936728 0.4659032 -0.3761701 0.8008934 197 199 197
3.16714550426881 2.07756714998795 -0.342038373118496 0.5196382 -0.4714923 0.7125105 194 196 195
3.16245611230623 2.07068638163244 -0.339303569659506 0.7306449 -0.1147396 0.6730474 186 187 182
3.16256731334951 2.07422161501325 -0.339820153870087 0.7916543 -0.3587119 0.4945799 177 177 168
3.16316528201162 2.07182361092303 -0.339939457424889 0.5381694 -0.1427946 0.8306524 191 192 190
3.16530232319137 2.07155063279948 -0.341122087427744 0.3164898 -0.03194711 0.9480578 198 199 198
3.17607800865379 2.0706579516841 -0.341952285812274 0.2918456 -0.01650366 0.956323 190 192 192
3.17817953068305 2.07079993369992 -0.342431720610578 0.3718763 -0.06443283 0.9260435 191 193 192
3.17674768744227 2.06784391589754 -0.342411233191051 0.4023648 -0.4418295 0.8018038 188 192 190
3.17893703030333 2.07679100673044 -0.343178133563479 0.2441921 -0.0962358 0.9649398 192 195 191
3.17787848969361 2.07549660544578 -0.343414465658999 0.2015739 -0.02323222 0.9791977 193 195 193
3.17885630634566 2.0745720445142 -0.343992267048889 0.3194195 -0.03528327 0.9469563 190 192 192
3.17919283928493 2.07901590295992 -0.342369707319631 0.186488 -0.1459838 0.9715508 186 187 181
3.17876212412258 2.07805377509292 -0.342771471782237 0.1145562 -0.1734671 0.9781544 197 199 197
3.17489525634237 2.07566745837397 -0.343466049503103 0.09724762 0.09222377 0.9909782 196 198 195
3.17625237629359 2.0752610536949 -0.34343542376681 0.09929515 0.1112913 0.9888148 194 196 194
3.17292556489488 2.06994208763609 -0.341160116778774 0.1202032 -0.09474006 0.9882184 193 195 193
3.17358970480932 2.07438409115527 -0.342772583113989 0.1790902 0.1709409 0.9688684 197 198 197
3.17391797276352 2.07595870507025 -0.343567989754132 0.129166 0.09433725 0.9871255 199 200 198
3.17234251429918 2.07322771471583 -0.342310961035535 0.1520626 0.1792732 0.9719764 198 200 198
3.18358757192731 2.07122281276555 -0.346994086956232 0.4982461 -0.02800848 0.8665831 193 196 194
3.17901018970637 2.06855086885886 -0.343545955773626 0.504096 -0.458969 0.7315974 190 192 192
3.18119461230778 2.06905281204098 -0.344832593726155 0.4571853 -0.4055622 0.7915181 197 198 199
3.17772765491023 2.06736191139741 -0.344056202864505 0.4846747 -0.6035048 0.6331448 189 192 191
3.18150996665751 2.07021988854378 -0.345122778956648 0.5921093 -0.1617444 0.7894589 192 194 193
3.18010995909749 2.06761063354961 -0.345662018125665 0.3480239 -0.6344832 0.6901525 196 198 199
3.17958260745582 2.06716054998583 -0.34639215187038 0.4036986 -0.6447648 0.6490808 193 196 197
3.17980193205815 2.06686771661813 -0.347763014079593 0.2982243 -0.6238883 0.722375 195 197 199
3.18137040306667 2.06738891401502 -0.346782095729293 0.3113828 -0.556779 0.7700896 198 201 201
3.1814815646931 2.07643029967389 -0.343737386165804 0.5811648 -0.3170209 0.7494966 190 192 191
3.18120380946081 2.07568686175456 -0.344099872295659 0.5807043 -0.2416615 0.7774202 191 193 192
3.18025725509889 2.07549154698106 -0.343759038107823 0.5356203 -0.2306401 0.8123521 191 193 192
3.18253330475101 2.07574357396487 -0.346822915521253 0.6281722 -0.1887899 0.7548231 194 195 195
3.182136433583 2.07579267538933 -0.34690471536586 0.6470228 -0.161678 0.745132 192 194 193
3.17395496273092 2.06696382987193 -0.342182651146924 0.2483773 -0.503 0.8278283 194 196 198
3.17503415174651 2.06557446929075 -0.344972152033151 0.4328781 -0.6787434 0.5932318 194 197 197
3.17224872740005 2.06641981110328 -0.342474028839736 0.2011985 -0.4725754 0.8580161 196 198 200
3.17256802447286 2.0657670785788 -0.343329114144805 0.2239532 -0.5688881 0.7913352 197 199 200
3.171940460219 2.06436200761461 -0.343861112980878 0.3163456 -0.5825166 0.7487322 193 196 197
3.1709677842863 2.06525034886769 -0.34306499292126 0.223673 -0.5167302 0.8264142 196 198 199
3.17326725980587 2.06398147686855 -0.345081222458498 0.4030151 -0.6381904 0.6559664 194 197 198
3.16741605671365 2.06036182834017 -0.343035253991627 0.5020742 -0.2285824 0.8340693 194 196 196
3.16848963596098 2.06058054093427 -0.343413418596216 0.4802574 -0.2778915 0.831943 197 199 200
3.16927743790042 2.06386052698693 -0.343397127678411 0.3465745 -0.3072884 0.8862618 198 200 200
3.17241191970226 2.06852828324741 -0.340964185784215 0.1608115 -0.2885839 0.9438533 195 197 197
3.16935509088759 2.06607310960334 -0.342906014715433 0.1937143 -0.4730803 0.859459 199 201 202
3.17324493353168 2.06729672066054 -0.342701722744729 0.2584288 -0.4964892 0.8286815 194 197 199
3.16874413411301 2.06451470858305 -0.343515254336019 0.2778627 -0.3470075 0.8957556 200 201 201
3.17573272151259 2.06524254477722 -0.346654976663499 0.4890892 -0.6443461 0.5878859 195 197 198
3.17481817789812 2.06276710287331 -0.347752016368355 0.439712 -0.416347 0.7958069 196 198 198
3.1774808790653 2.0662986799746 -0.347411141195572 0.4241302 -0.6612029 0.6188088 194 196 197
3.17543152598512 2.06261478557572 -0.34842663971247 0.4113202 -0.3618203 0.8366014 198 199 200
3.17332735280385 2.06157614253241 -0.34804151393603 0.4431586 -0.4410578 0.7804348 193 195 193
3.17019045534916 2.05844042663671 -0.34656318927411 0.5936087 -0.4076637 0.6938581 194 196 196
3.17352945163539 2.05681273368748 -0.349725969280193 0.1737854 -0.3154978 0.9328771 202 204 204
3.17323600895031 2.06201898848274 -0.348242249833407 0.4782009 -0.4535414 0.7520798 194 195 194
3.1760937220064 2.06047659421943 -0.34927827527442 0.2057078 -0.2364412 0.9496208 200 201 202
3.17356156374713 2.08174032708962 -0.342223073242773 0.3096209 -0.4051248 0.8602377 192 193 190
3.17446056017517 2.08059687833818 -0.343779828262029 0.05760324 -0.2876664 0.9559968 203 202 200
3.17457195272775 2.07783621302482 -0.34396241208176 0.0890182 -0.08768459 0.9921629 201 203 200
3.1734492994176 2.07881333360755 -0.343581731878112 0.1734997 -0.1374531 0.9751946 205 206 203
3.16212686563069 2.05866346845055 -0.330796032773394 0.9955768 0.06812561 -0.06469685 171 174 165
3.16293632348563 2.05946782669883 -0.331246898215711 0.9955768 0.06812561 -0.06469685 173 174 168
3.16247691025089 2.05755639583376 -0.332717008269431 0.9984559 0.02198561 -0.05101374 176 176 170
3.16275032929731 2.05744774498564 -0.334378888130846 0.9962468 0.003476278 0.08648868 174 175 170
3.1620699247164 2.06080151512313 -0.334046959743121 0.9970456 0.07374695 0.02148343 171 174 167
3.16307114985644 2.05504267317247 -0.338581194221785 0.8821853 -0.2341061 0.408587 184 186 184
3.16299870603631 2.05899266851408 -0.337663412228871 0.9190761 -0.05980695 0.3895154 178 181 174
3.16432126185817 2.0546962038107 -0.341075387682252 0.8097253 -0.2973825 0.5058741 192 194 194
3.1633440798334 2.05603792267036 -0.338989067372918 0.8766837 -0.2083913 0.4335882 188 190 189
3.16089372197651 2.05168330269253 -0.337319855868641 0.9952902 0.04065058 0.08800588 176 178 173
3.16152845482334 2.05194367879956 -0.338329199458378 0.9654055 -0.07100327 0.2508999 177 179 175
3.16158412895704 2.05128242730552 -0.339413415727613 0.9447092 0.03267781 0.3262772 184 186 185
3.16184968950191 2.04996201164614 -0.341862185287027 0.9064798 0.01316469 0.4220439 193 193 193
3.16875855801884 2.05769207848473 -0.345654068938534 0.6557772 -0.3863364 0.6486143 193 195 196
3.16628766079869 2.05483946009539 -0.344346141001094 0.7626405 -0.4409041 0.4732684 192 195 195
3.16713976899394 2.05544755367319 -0.345097233140349 0.7264717 -0.4554121 0.5146248 192 195 195
3.16536931147047 2.05274239329672 -0.345933992780199 0.8041546 -0.3055765 0.5098611 192 192 191
3.16603902212246 2.05318402365108 -0.346120815899557 0.7454454 -0.375622 0.5506535 192 193 192
3.17004159740632 2.05631244401454 -0.348510388529 0.5522866 -0.5212878 0.6505679 196 198 197
3.16733339769782 2.05397345393278 -0.346920895615184 0.682684 -0.4300375 0.5907709 192 194 192
3.17217724738359 2.05529180389797 -0.350086181762171 0.1932593 -0.4168169 0.8882086 198 200 200
3.17091678231414 2.05362980613081 -0.350335559336571 0.2918034 -0.3079703 0.9055413 194 196 194
3.16455132772825 2.04792296571347 -0.347065210787658 0.8066956 0.2133118 0.5511264 193 193 190
3.16697518133837 2.05153150760161 -0.348881209202622 0.6101765 -0.2566216 0.7495532 191 191 189
3.16652614712193 2.05121514331489 -0.349297585446027 0.6002271 -0.231006 0.7657439 194 193 191
3.16942896928622 2.04936766875023 -0.350318356194385 0.3967172 0.01638301 0.9177946 196 194 192
3.16797150254505 2.05224770705196 -0.34943285641202 0.6101765 -0.2566216 0.7495532 195 194 192
3.18528370905465 2.07311538104755 -0.349547955626398 0.3597855 -0.02193745 0.9327772 195 196 196
3.18544677474476 2.07169234447839 -0.349082670321072 0.2891573 -0.005601088 0.9572652 200 202 201
3.18886278315625 2.07153880185601 -0.349642317871187 0.139141 0.01795022 0.9901099 198 200 200
3.18799377680309 2.07162841949183 -0.349601532630367 0.2063158 0.03646573 0.9778057 201 202 201
3.18739399150955 2.069885288419 -0.349135716729766 0.240265 0.0400893 0.9698792 198 199 199
3.18825167172467 2.06851776815339 -0.349283256580341 0.221981 0.01247633 0.9749711 198 199 201
3.18751767122125 2.07177878893655 -0.349593648936551 0.2497104 0.06060256 0.9664223 201 202 202
3.18299553692086 2.06678347133289 -0.348246946987853 0.07295602 -0.4886658 0.8694154 200 203 203
3.18501532489679 2.06713629595275 -0.34849586515963 0.1414263 -0.1790502 0.9736219 201 203 203
3.1846975095392 2.06658581754727 -0.348792923325146 0.1015806 -0.2437157 0.9645123 200 203 204
3.18222200112001 2.06383686644339 -0.349429373980504 0.0447595 -0.2622336 0.9639659 204 205 208
3.18153095756891 2.06556606447399 -0.349231567606374 0.1019666 -0.3711978 0.9229382 207 208 210
3.18044639845244 2.06658332056246 -0.348741362097072 0.2406245 -0.5524243 0.7980773 199 201 202
3.1844941882053 2.07562002078101 -0.348509372824317 0.4631331 -0.190284 0.865621 197 198 198
3.18403330402188 2.07458951776263 -0.348412704118551 0.5451347 -0.07120528 0.8353191 196 198 198
3.17979585610344 2.06187444726705 -0.349440778191132 0.1590677 -0.1605069 0.9741329 202 204 205
3.18049367995736 2.0642878740853 -0.349448754872785 0.1660139 -0.3004583 0.9392359 205 205 208
3.17775990897197 2.06075353419246 -0.349127587074346 0.1782032 -0.1948565 0.9645074 199 201 201
3.18022717612466 2.06097160960223 -0.349428958393631 0.1433228 -0.1564361 0.977234 203 206 207
3.17939622365986 2.0594023840421 -0.349504136070474 0.1721057 -0.1965955 0.9652616 202 204 205
3.17887304436923 2.06545045351402 -0.349210601915774 0.3135806 -0.4424867 0.8401623 202 204 205
3.17695862362093 2.057118606481 -0.349845278191266 0.09514461 -0.2839504 0.9541067 204 204 206
3.17586885451546 2.05729066323966 -0.349607842703857 0.0909706 -0.2725932 0.957819 203 205 205
3.17440261606889 2.05607708183136 -0.350023597702459 0.1275494 -0.3188311 0.93919 204 205 205
3.17438589910955 2.05323644823869 -0.351012847374154 0.1081888 -0.3384275 0.9347523 201 203 203
3.17099288091455 2.05233751019998 -0.350713564599783 0.2596247 -0.2482038 0.9332684 196 196 196
3.17239048043103 2.05064047427661 -0.352267192934299 0.2009809 -0.07006746 0.9770861 195 192 189
3.17117452626176 2.04948930732568 -0.350972148005603 0.3004196 0.02721139 0.9534189 195 192 191
3.26292841977743 2.08349328844857 -0.360965432478667 -0.1683557 -0.3966995 0.9023779 211 213 215
3.26890215359181 2.07908549577459 -0.361738129135286 -0.09200138 -0.3366158 0.9371369 201 204 209
