ply
format ascii 1.0
comment File exported by Rhinoceros Version 7.0
element vertex 498
property float x
property float y
property float z
property float nx
property float ny
property float nz
property uchar red
property uchar green
property uchar blue
end_header
3.46600560712249 2.27403218241253 -0.357114434242249 -0.6724185 0.6285107 -0.3909318 178 180 179
3.47098712863953 2.28666383715191 -0.346751093864441 -0.69089 0.563409 -0.4530357 182 183 179
3.6031531156841 2.26366884203472 -0.34007939696312 0.8517855 -0.3182507 0.4161465 187 186 181
3.60086250918538 2.2765229413084 -0.349419772624969 0.9336889 0.1482897 -0.3259375 188 188 183
3.57619211691053 2.31148249598065 -0.328455865383148 0.2256173 0.3220104 0.9194597 204 205 206
3.59561411159665 2.25036997290173 -0.345817059278488 0.4335019 -0.6464733 0.6278123 189 188 179
3.44276592096866 2.23702663870373 -0.318730026483536 0.02315874 -0.2709217 0.9623228 212 211 210
3.57008381801278 2.24507708044567 -0.332340240478516 0.2670238 -0.3851921 0.8833603 212 213 214
3.59992847459943 2.27051836939373 -0.335498183965683 0.5487471 -0.1160515 0.8278942 205 204 200
3.43449303748638 2.22114796133557 -0.330071896314621 -0.7562165 -0.6510347 -0.06550217 180 181 166
3.58195940273435 2.26744944544354 -0.326291263103485 0.04350198 -0.207984 0.9771644 215 214 215
3.45095726192084 2.2425566384367 -0.316135495901108 -0.4029032 0.2806757 0.871143 207 207 203
3.58833456652791 2.30954033823528 -0.333971112966537 0.4019287 0.358107 0.8427412 184 185 179
3.54611024873883 2.33269853086987 -0.344971984624863 -0.2242012 0.9175564 0.3283657 180 182 179
3.46632807197602 2.20968384237805 -0.327692329883575 -0.08530015 -0.8747998 0.4769163 207 206 198
3.53042438494594 2.21367568464794 -0.337914824485779 0.04492603 -0.7078378 0.7049449 201 202 197
3.53867354857356 2.27947623224774 -0.317529141902924 0.1086295 -0.2557239 0.9606274 216 216 216
3.55269297080667 2.21981365175762 -0.347818553447723 -0.07027468 -0.9222813 -0.3800773 198 200 195
3.43778440038295 2.25813133211651 -0.328915476799011 -0.6686758 0.6305795 0.3940077 191 193 189
3.47648014555306 2.28352815599957 -0.309478640556335 -0.3259853 0.3361101 0.8836083 212 214 213
3.45570898110599 2.2713857361845 -0.313014626502991 -0.6297467 0.4963974 0.5975021 201 202 200
3.43335885236592 2.2562410304121 -0.330027401447296 -0.711575 0.5380007 0.451903 179 181 178
3.4890229018274 2.22757501097241 -0.322154819965363 -0.06697227 -0.6392998 0.7660356 201 202 196
3.48450840132863 2.21185214014568 -0.325624108314514 0.1490117 -0.5179671 0.8423215 202 202 197
3.52324862646491 2.24018449278393 -0.322599619626999 0.1265034 -0.311522 0.9417807 212 212 211
3.50390075015456 2.31951827497997 -0.343370765447617 -0.6976323 0.6670157 -0.2615325 183 187 181
3.48762184994848 2.21576613874951 -0.324601113796234 0.2233256 -0.2430029 0.9439679 213 212 208
3.55860853063495 2.26909512968578 -0.322332739830017 0.1126462 -0.2961069 0.9484891 213 215 214
3.49446032064588 2.29820579977551 -0.313192546367645 -0.5172984 0.7815978 0.3485789 192 195 190
3.53774840998084 2.30165297480145 -0.312369704246521 0.3098873 -0.0829978 0.9471437 206 208 204
3.42481910119385 2.24685615988293 -0.327225297689438 -0.711544 0.6892416 0.136569 184 186 179
3.45808854660572 2.25802010984936 -0.313401579856873 -0.5901802 0.03378731 0.8065642 204 204 200
3.58389419930608 2.27774614782849 -0.326513648033142 0.3667092 0.2246557 0.9028035 210 211 211
3.50554643067152 2.30254251452007 -0.313036859035492 -0.5964907 0.5273556 0.6050578 205 206 207
3.44797724481759 2.2290946909956 -0.321191161870956 -0.6276379 -0.3709034 0.6844715 200 201 194
3.57533220070035 2.27923602552929 -0.324022889137268 0.239037 0.01733018 0.9708558 204 206 203
3.59274528043897 2.25359458418408 -0.342992722988129 0.5592805 -0.4972315 0.6632994 203 203 198
3.48388571160466 2.26082224340954 -0.311124324798584 0.04757574 -0.3203086 0.9461178 201 203 200
3.56419791149528 2.229435748773 -0.335498183965683 0.199023 -0.2925289 0.9353163 207 208 206
3.43433736505539 2.22537333460369 -0.339923739433289 -0.8790473 -0.3915156 -0.2720138 166 170 157
3.49275904389651 2.27020711393871 -0.308900415897369 0.1421852 -0.3362877 0.930964 206 208 204
3.58645167070062 2.25170428247967 -0.336298793554306 0.6211166 -0.6044853 0.4988101 188 189 181
3.57682963328988 2.28927332850018 -0.324912458658218 0.4164627 -0.05056882 0.9077454 203 204 202
3.44904471365589 2.21991748304882 -0.321472823619843 -0.6503445 -0.4397528 0.6194106 204 203 198
3.46117975803644 2.23653728457012 -0.315816730260849 0.07135297 -0.216402 0.9736934 205 204 198
3.50029804425866 2.31408447714367 -0.354868292808533 -0.6629696 0.7460414 -0.06239789 163 165 155
3.5926785679403 2.28604120703259 -0.335809528827667 0.1945446 0.3126726 0.9297248 195 195 190
3.48691020774276 2.29106718988934 -0.310501635074615 -0.30458 0.6937221 0.652672 193 193 189
3.59641472118528 2.29382485838452 -0.348574697971344 0.9731612 0.152533 -0.1723109 173 176 171
3.5225592167917 2.32777256460705 -0.349631041288376 -0.2518625 0.9458504 -0.2047738 157 163 152
3.58440569656522 2.25397259684124 -0.331228315830231 0.2531049 -0.5786163 0.7753329 203 204 201
3.45218569839925 2.24346954317608 -0.317255914211273 -0.2780283 0.4168725 0.8654002 204 206 203
3.53254449980886 2.30957002134838 -0.308070152997971 0.1285316 0.02910741 0.9912782 199 199 197
3.53343405442865 2.33091933222332 -0.345372289419174 -0.06547353 0.9971489 0.03751433 195 195 194
3.58390531557233 2.29094488115826 -0.330171942710876 0.6728166 0.09103993 0.7341863 190 190 184
3.4460128057617 2.26066655607739 -0.355246365070343 -0.4705091 0.8084309 -0.3536394 179 184 180
3.45784391889901 2.24900228472271 -0.313048005104065 -0.6200851 -0.1133374 0.7763048 203 203 196
3.59623680132062 2.28746444674053 -0.350042462348938 0.9738579 0.1423586 -0.1770161 174 175 170
3.42459671067626 2.24325341673412 -0.324489921331406 -0.83412 0.3426211 0.432267 193 192 184
3.59570307152898 2.31570798845806 -0.336877018213272 0.7162259 0.447372 0.5356107 191 192 190
3.49238098281057 2.28452891798535 -0.308203607797623 -0.1698968 0.3512712 0.9207299 206 205 200
3.46302559001924 2.27910263033428 -0.316016882658005 -0.6086192 0.7331246 0.3034981 188 191 188
3.52195876705081 2.32264644594708 -0.326824992895126 -0.4897058 0.5309044 0.6916131 196 197 194
3.45006029164505 2.23921710939922 -0.315071731805801 -0.5234629 0.09848618 0.8463374 203 201 194
3.463759475002 2.27398771734753 -0.350687384605408 -0.6670163 0.6551256 -0.3548235 179 183 181
3.51831158118875 2.21761197538891 -0.332251310348511 0.1544857 -0.597744 0.7866615 202 204 200
3.5444423245135 2.32564873190441 -0.337177246809006 -0.11325 0.9699847 0.215184 180 183 177
3.57551012056501 2.30245358439007 -0.323978424072266 0.3895487 0.3462547 0.8534397 209 209 210
3.46255115939856 2.22694487066784 -0.318151831626892 0.1274854 -0.2622971 0.956529 208 207 201
3.49991997944743 2.30187530012646 -0.318996906280518 -0.5494455 0.7415587 0.384968 198 199 199
3.51224035638005 2.30910295935192 -0.311991631984711 -0.1497491 0.6459906 0.7485128 197 199 196
3.45968974995048 2.27167481871166 -0.349686622619629 -0.6012973 0.6830383 -0.4146085 183 186 183
3.54175141322047 2.23186714144268 -0.329582631587982 0.3450527 -0.609453 0.7137967 197 198 192
3.45474776447372 2.24296195002117 -0.314178466796875 -0.3249691 0.2207279 0.9196056 209 209 205
3.57814914601476 2.31361741514721 -0.330309122800827 0.3043187 0.4669908 0.8302468 201 202 203
3.51623224335344 2.30924756022015 -0.311674743890762 -0.152757 0.6995903 0.6980249 205 206 204
3.5444423245135 2.31989998312512 -0.319841980934143 0.2671002 0.8207064 0.5050728 198 201 199
3.51912700998218 2.25361687632122 -0.317469835281372 0.1014959 -0.2610044 0.9599871 236 193 224
3.46258081177802 2.2290205428175 -0.318218529224396 0.1002519 -0.2667672 0.9585326 206 205 202
3.49057962613733 2.30436605902233 -0.329893976449966 -0.2476543 0.7394888 0.6259582 193 194 193
3.58062507825525 2.32398087473431 -0.340568661689758 0.1964466 0.7074463 0.6789171 201 202 203
3.53370091932447 2.22408349009075 -0.333674609661102 0.1077943 -0.3116981 0.944047 211 211 208
3.45472601995424 2.27169258089581 -0.325917661190033 -0.6872441 0.7117312 -0.1453765 191 192 187
3.5222701119128 2.30367667170086 -0.307321459054947 0.05866376 -0.04876985 0.9970858 207 209 206
3.56883843856485 2.26967329474011 -0.324867993593216 0.1674867 -0.08436729 0.9822578 209 208 208
3.47432296777696 2.24890214891949 -0.314104348421097 0.1529492 -0.1339555 0.9791131 207 207 204
3.552626258308 2.29785007925549 -0.316239297389984 0.177015 0.05255661 0.9828039 212 213 211
3.46836293357045 2.22538823576489 -0.319634407758713 0.239052 -0.3069749 0.9212061 203 203 198
3.43626473991753 2.24715275259533 -0.349790424108505 -0.9435803 0.1890554 -0.271872 168 171 159
3.55826160180003 2.24928469152966 -0.328888773918152 0.1277685 -0.3625796 0.9231529 221 220 220
3.46960831488104 2.23840541334667 -0.316639572381973 0.1381635 -0.1725847 0.9752566 206 205 199
3.43067535440058 2.23151130171337 -0.333778381347656 -0.9440315 -0.2786755 -0.176478 174 174 158
3.4525139872785 2.24309033842602 -0.315735191106796 -0.3254924 0.4651633 0.8232119 208 209 205
3.48266256841452 2.23182267637768 -0.322088122367859 -0.01598955 -0.5342582 0.8451701 200 201 195
3.55295983570249 2.2274416157774 -0.335186839103699 0.0917156 -0.3010697 0.9491814 202 203 200
3.51835606115491 2.22190410585919 -0.350665152072906 -0.0204433 -0.6693598 -0.7426571 169 171 157
3.45177268966653 2.25392813177624 -0.316550612449646 -0.05325861 -0.2529789 0.9660048 207 207 201
3.51931678372056 2.30705255957165 -0.308286637067795 -0.2245821 0.5049965 0.8333915 201 203 198
3.42902967388363 2.24900598021069 -0.331458121538162 -0.6257546 0.6315234 0.4578311 190 191 183
3.45928944888146 2.27343172522106 -0.346506476402283 -0.4926796 0.7521892 -0.4375822 177 181 177
3.48199540244968 2.25368351431408 -0.31314805150032 0.02499072 -0.2031857 0.9788212 201 202 200
3.47668029608757 2.28745336027661 -0.312169551849365 -0.5042573 0.7454595 0.4359068 197 198 194
3.46642814817459 2.22162610979595 -0.32135421037674 0.105893 -0.248362 0.9628619 209 208 202
3.59282683449418 2.28730136843243 -0.3360615670681 0.1969661 0.2474764 0.9486621 196 195 192
3.50937152894766 2.29733855219402 -0.308678030967712 -0.05589753 -0.05511006 0.9969144 214 214 214
3.43286959508986 2.24525494070568 -0.315483152866364 -0.7192359 -0.007866955 0.6947215 199 198 192
3.45250657441647 2.24496585817852 -0.317684799432755 -0.1810537 0.2708263 0.9454484 211 212 210
3.460445873985 2.27812416048565 -0.337455213069916 -0.7813135 0.6239694 -0.01453975 180 183 177
3.52520564811856 2.28750891180554 -0.31263655424118 0.2356142 -0.2035151 0.9502987 217 217 216
3.47872627767355 2.24432093592205 -0.31481596827507 0.02260396 -0.3658465 0.9304007 200 202 197
3.43791042043448 2.25702685804882 -0.351510226726532 -0.7798374 0.4643287 -0.4198245 169 173 163
3.45809966566593 2.23381299467602 -0.31593906879425 0.07999846 -0.2032817 0.9758467 203 203 195
3.54361948984296 2.31303925009289 -0.312414169311523 0.4151684 0.2217944 0.8822939 199 200 196
3.46606787534983 2.21300847025433 -0.323675990104675 0.09721429 -0.6623744 0.7428389 205 204 195
3.47438227253587 2.22301609011212 -0.321576625108719 0.177195 -0.1232072 0.9764333 211 209 206
3.48695468398363 2.27090389223614 -0.307981222867966 0.07968745 -0.3222423 0.9432973 208 208 207
3.44224701271013 2.261289305406 -0.317595839500427 -0.7164356 0.4424049 0.5394423 204 205 202
3.43536035584838 2.26051086874523 -0.337588638067245 -0.8053265 0.5892116 0.06541371 185 185 170
3.53917170184285 2.26700467558422 -0.320598095655441 0.2531107 -0.1838055 0.949816 212 206 209
3.46617462354333 2.28661937208691 -0.32799032330513 -0.6646571 0.5785153 0.4728118 203 204 202
3.57246338444383 2.32638258429089 -0.3403240442276 0.1943761 0.8044552 0.5613108 204 206 203
3.45238648409576 2.21146077604809 -0.328105956315994 -0.1078055 -0.6347101 0.7651935 209 208 203
3.54135111587674 2.26913959475079 -0.320820480585098 0.1367986 -0.247168 0.9592675 232 203 222
3.4423656203653 2.25719732733288 -0.315494269132614 -0.3225899 -0.01959061 0.9463361 197 197 192
3.52804333584935 2.31305260153332 -0.311395645141602 -0.5481663 0.5593505 0.6218045 195 197 194
3.58282672482164 2.2712077567152 -0.325579643249512 0.07415825 -0.08890881 0.9932753 214 214 215
3.52666229622991 2.28307229967632 -0.313970893621445 0.2279117 -0.2366096 0.9444957 209 208 206
3.45395210486458 2.21438736410656 -0.323088854551315 -0.3371154 -0.5883598 0.7349734 214 212 206
3.4985189275685 2.20829386206188 -0.333051919937134 0.2036002 -0.9328788 0.2971265 199 198 191
3.54072842615277 2.33096379728832 -0.345661371946335 -0.07349126 0.953607 0.2919463 184 186 182
3.59187797325284 2.29764992685833 -0.334742069244385 0.6097502 -0.1175649 0.783826 202 204 199
3.50616912412078 2.31570798845806 -0.329819858074188 -0.5398942 0.6903476 0.4815958 192 193 190
3.49023121836216 2.22704870195904 -0.323014736175537 -0.02762219 -0.6518521 0.7578429 202 203 199
3.45942288319201 2.23133344145336 -0.348841547966003 0.1134753 -0.6181587 -0.7778195 183 180 167
3.52222563194663 2.31646401377239 -0.318552136421204 -0.3650362 0.7843131 0.5015988 187 188 183
3.45341837088198 2.22092563601055 -0.319397211074829 -0.1658947 -0.3973835 0.9025328 212 211 203
3.56432393806607 2.28922135324993 -0.319219291210175 0.3158729 -0.07661936 0.9457028 209 209 208
3.46458231526048 2.28003663511791 -0.323889464139938 -0.5556725 0.825361 0.1000364 189 190 186
3.57582146542699 2.30449945421734 -0.325624108314514 0.2772746 0.4424064 0.8528748 205 207 206
3.50862811374099 2.31131095381298 -0.315750032663345 -0.5009403 0.7961604 0.3393927 191 193 192
3.52249249684245 2.32903642149487 -0.343934148550034 -0.05664024 0.9851044 -0.1623614 175 177 169
3.59759337323339 2.30342096777477 -0.353222608566284 0.9567322 -0.2846039 0.06053161 185 185 180
3.47819254229398 2.28826505632916 -0.320108860731125 -0.7448586 0.6141623 0.2607497 193 196 192
3.45595360927836 2.20624787302532 -0.332162350416183 0.03800884 -0.7841389 0.6194204 201 203 197
3.47276624346704 2.29717547388592 -0.335913330316544 -0.7441707 0.6609886 0.09645724 186 187 183
3.55838613825471 2.32593781443157 -0.335053414106369 0.3042239 0.6992826 0.6468784 197 198 198
3.57279696928889 2.27129668684521 -0.325001418590546 0.05787328 -0.2211177 0.9735284 210 211 211
3.43006748946936 2.24814600439587 -0.324779033660889 -0.4609296 0.774537 0.4331701 202 203 202
3.5664588721338 2.29531485529461 -0.318685531616211 0.2689874 -0.07694691 0.9600651 203 203 200
3.53191069381864 2.32587117643871 -0.357170045375824 -0.2616301 0.9441469 -0.2003403 184 187 182
3.44318846108944 2.26429147215405 -0.32428976893425 -0.7013167 0.7007107 -0.1309944 184 186 181
3.51196236031682 2.32132322283306 -0.351777076721191 -0.3985745 0.8804159 -0.2569169 172 174 164
3.56266490983398 2.22769517393627 -0.336067497730255 0.1547281 -0.3372104 0.9286271 210 211 210
3.57046187537343 2.32286877127209 -0.335609376430511 0.2797557 0.7367248 0.6156081 198 199 197
3.53983887153299 2.32046706171551 -0.318418681621552 0.2281798 0.8128119 0.5359766 202 203 202
3.4526400077957 2.2087386319212 -0.32982724905014 0.03612168 -0.7348546 0.6772621 213 213 211
3.57977998870046 2.29542607756176 -0.325846493244171 0.5363783 -0.0451798 0.8427675 195 195 188
3.5218475671354 2.32807273359814 -0.348174393177032 -0.2240601 0.9442059 -0.2413967 163 166 157
3.50993862243921 2.31365079374828 -0.32298880815506 -0.4749233 0.7395857 0.4769286 197 199 197
3.45091649059759 2.24902445765057 -0.317240029573441 0.06716068 -0.1149098 0.991103 214 214 212
3.50516836958558 2.30638975592175 -0.314237773418427 -0.7797126 0.5024015 0.3736858 196 199 199
3.47838824483187 2.29359359236279 -0.325001418590546 -0.5705656 0.4894525 0.6594627 192 196 194
3.56221123653085 2.22039181681194 -0.339234322309494 0.3385836 -0.6335877 0.6956492 201 202 203
3.59763044732244 2.2897773453764 -0.345446407794952 0.9550121 0.1430323 -0.2597954 171 172 165
3.51230706887872 2.21271199675121 -0.334890335798264 0.2474418 -0.5979537 0.7623804 207 206 201
3.50023132430942 2.3000517556242 -0.312925696372986 -0.4714782 0.8471829 0.2449273 202 205 202
3.50261089446575 2.31988889666119 -0.341413736343384 -0.719758 0.6538457 -0.2333111 185 188 184
3.46284026520879 2.2813784548811 -0.329767942428589 -0.7526655 0.6046387 0.260589 193 194 191
3.51215880977542 2.32552272768536 -0.333333611488342 -0.6321003 0.2433015 0.7356994 198 199 194
3.59281200783879 2.24761230440655 -0.352355301380157 0.4670588 -0.8358654 0.2884181 183 184 173
3.4416317358482 2.26482529135265 -0.336209833621979 -0.301667 0.8702558 0.3894249 198 198 192
3.52424937354953 2.22252673597851 -0.331584125757217 0.3797094 -0.6052616 0.6996279 193 195 187
3.53051334487827 2.21767873259106 -0.335097879171371 0.06317012 -0.4051158 0.9120804 203 204 202
3.59628128128679 2.27167481871166 -0.334208339452744 0.4887167 -0.03720348 0.871649 202 201 198
3.46556082794995 2.28025907965222 -0.315260767936707 -0.5485761 0.8072514 0.2177372 192 195 193
3.59757114070089 2.28813166113415 -0.336565673351288 0.4061183 0.3380857 0.8489794 193 193 188
3.57088442015083 2.26994020433941 -0.325624108314514 0.1443741 -0.141054 0.9794182 212 213 212
3.44392234607221 2.26369101496258 -0.317729294300079 -0.6153866 0.6024577 0.5082755 209 209 205
3.43708016684831 2.23351282568493 -0.319145172834396 0.04554683 -0.3115615 0.9491338 218 218 217
3.59147766845853 2.31192726583996 -0.33469757437706 0.230505 0.07047831 0.9705155 204 205 203
3.55198132860095 2.28186029882946 -0.317440181970596 0.09605302 -0.3061967 0.94711 244 190 229
3.43862947969318 2.21934670897045 -0.324267506599426 -0.1696215 -0.5870333 0.7915936 213 213 211
3.56063968556554 2.32876963110485 -0.337232828140259 0.3229544 0.7301106 0.602195 199 200 199
3.45928944888146 2.21216351480999 -0.323933959007263 -0.03463662 -0.8130776 0.581124 205 205 197
3.54833414273889 2.27928060980358 -0.318285256624222 0.05358544 -0.3351208 0.9406501 221 207 215
3.45617599839897 2.22386116476574 -0.318507641553879 0.08463206 -0.3413316 0.936125 215 213 211
3.53894930946262 2.31332845182934 -0.310434907674789 0.3037467 0.3096464 0.9010311 200 203 200
3.43620543608994 2.24676722975292 -0.344616144895554 -0.8905937 0.3506648 -0.2896154 166 170 159
3.52489430325658 2.27285356016674 -0.316483914852142 0.06466008 -0.2519322 0.9655823 237 192 224
3.59012555199296 2.30754179449597 -0.331601917743683 0.4652594 0.370463 0.8039222 190 190 187
3.58960959928663 2.2592654892973 -0.330116361379623 0.5912138 -0.4631938 0.6602407 191 193 190
3.46212713754357 2.27934283705273 -0.327501058578491 -0.7103475 0.6720464 0.209189 197 200 195
3.60028428452642 2.26197869272747 -0.338300287723541 0.5195849 -0.488996 0.7006529 196 197 193
3.54019468891055 2.33229822607556 -0.352488726377487 -0.008077168 0.9968327 -0.07911637 185 188 181
3.52437168973119 2.323185748773 -0.325651913881302 -0.2586738 0.7154328 0.649033 194 196 190
3.47654686177702 2.27541095705547 -0.308366686105728 -0.1550777 0.2698992 0.9503186 209 209 205
3.43349228667648 2.23324603529492 -0.346951246261597 -0.824737 -0.34341 -0.4493089 153 156 138
3.53395296501548 2.26740498037853 -0.319056212902069 0.2423372 -0.1916213 0.9510804 209 208 208
3.56052107232244 2.26729375811138 -0.32326677441597 0.1378186 -0.271499 0.95252 212 214 213
3.48070554303558 2.29300946684399 -0.319738209247589 -0.5884127 0.7471961 0.3089797 187 189 186
3.58160359280736 2.29920668097057 -0.32633575797081 0.5737911 -0.02958849 0.818467 202 202 200
3.53714796023996 2.32533735724011 -0.328248292207718 0.04821309 0.9882159 0.1452755 191 192 190
3.49785176160366 2.21134061308422 -0.340946733951569 0.09299102 -0.8473096 -0.5228949 187 187 177
3.56806007640989 2.3000072905592 -0.319330483675003 0.2376967 0.2684017 0.9335207 211 210 210
3.59589210765989 2.31568569632092 -0.355646669864655 0.8898769 0.3159705 -0.3290619 174 177 173
3.59063259380491 2.3133654067091 -0.334490031003952 0.1629789 0.1295242 0.9780906 198 198 194
3.50667320432694 2.2290502259306 -0.32360777258873 0.04888437 -0.3293791 0.9429315 204 206 203
3.58409435170324 2.25165981741467 -0.332184582948685 0.2877654 -0.6872011 0.6670426 194 195 192
3.52084682005079 2.22523993940869 -0.354356795549393 -0.01610513 -0.6311103 -0.7755259 169 173 162
3.50421209501655 2.27763492556133 -0.308099836111069 0.1549041 -0.2218067 0.9627079 210 210 206
3.50274432318837 2.25681919546642 -0.314771503210068 0.07287918 -0.2223859 0.972231 207 207 204
3.51598390805156 2.32909578772106 -0.34172511100769 -0.362696 0.9159976 -0.1714642 185 186 180
3.42960047217638 2.23413557501354 -0.337566435337067 -0.9370003 -0.3143872 -0.1522867 167 170 152
3.54406426715286 2.2158996531538 -0.339545667171478 0.2139269 -0.9404869 0.2640447 189 190 184
3.51524260508449 2.23195607157269 -0.322688579559326 0.1319452 -0.2118138 0.9683622 202 203 202
3.4378511166069 2.25745303125897 -0.32378938794136 -0.804811 0.589614 0.06807849 189 191 186
3.46811830679507 2.23351282568493 -0.317017644643784 0.2114648 -0.2931662 0.932382 198 199 192
3.59628128128679 2.31279022188702 -0.335053414106369 0.671105 0.0605369 0.7388865 192 192 188
3.48604288565547 2.25119275541821 -0.314326703548431 0.1903447 -0.147752 0.970535 207 208 207
3.60213012116582 2.27176374884167 -0.347640633583069 0.9511077 0.04398461 -0.3057114 185 186 183
3.58235970752866 2.26340193243542 -0.327581137418747 0.04004962 -0.3013133 0.9526837 216 217 219
3.58707436042459 2.24494368525067 -0.351643651723862 0.2708713 -0.9379919 0.2163327 192 194 184
3.53650303053291 2.31770939322033 -0.312592089176178 0.2275675 0.6862385 0.6908616 198 200 198
3.49828171225817 2.31120080442944 -0.353407949209213 -0.5374038 0.8320616 -0.1373702 172 174 165
3.55834165828855 2.28937704058209 -0.317840486764908 0.1556363 -0.1319474 0.9789623 209 210 209
3.51913442330987 2.28753120394268 -0.311191022396088 0.2559663 -0.1662376 0.9522848 213 213 210
3.46373723595024 2.21020645590344 -0.330249816179276 -0.06870671 -0.860818 0.5042536 196 197 186
3.42988957891793 2.23395759554424 -0.335742831230164 -0.9360669 -0.3138733 -0.1589411 177 178 165
3.43696897252084 2.26066655607739 -0.333704262971878 -0.6993724 0.6274924 0.3422449 186 186 179
3.57239666449458 2.28577429743328 -0.322421699762344 0.4528401 -0.08182701 0.8878289 203 205 201
3.49616160112054 2.27150804491558 -0.309267371892929 0.1550682 -0.3073692 0.9388706 206 207 204
3.47292191589803 2.28470689745464 -0.32019779086113 -0.5748894 0.7662783 0.2869142 186 188 183
3.5130631910506 2.27096313925305 -0.315394192934036 0.1724722 -0.4403703 0.8810944 208 208 208
3.55620672422082 2.33117134066143 -0.339412242174149 0.1007204 0.9268163 0.3617555 185 188 182
3.48393018784554 2.23500282259503 -0.319241523742676 0.1409794 -0.3984543 0.9062886 207 206 203
3.45896539612294 2.25726396532574 -0.311594516038895 -0.6593643 0.180316 0.72988 204 205 201
3.5421368913594 2.3134395548872 -0.311554282903671 0.3495359 0.2618181 0.8995976 207 208 206
3.47402274290652 2.21885735483685 -0.322165966033936 0.1269609 -0.2212839 0.9669097 204 205 200
3.45682092764036 2.25942129583874 -0.31374853849411 -0.2963932 -0.2117857 0.9312883 208 205 202
3.47908210063905 2.25512904615917 -0.312747776508331 0.0423838 -0.3319597 0.9423409 202 204 201
3.5284525366369 2.21467644663372 -0.336654603481293 0.008976629 -0.5796101 0.8148445 210 210 207
3.45871123726101 2.22056979628124 -0.342792570590973 0.007594889 -0.5496197 -0.8353804 186 187 176
3.43635666052432 2.24746102781811 -0.314949423074722 -0.2681203 0.06612329 0.9611135 202 203 200
3.51089859994681 2.22995466681042 -0.323563307523727 0.002367987 -0.3316702 0.9433925 206 208 205
3.43235068822832 2.23742682428875 -0.318085104227066 -0.2209182 -0.0740784 0.9724749 203 203 202
3.53049851822288 2.32798380346813 -0.335676103830338 0.1032951 0.920567 0.3766781 193 195 191
3.59739323573739 2.31406230421581 -0.344571679830551 0.9782385 -0.02060409 0.2064578 184 187 179
3.49260337146551 2.28092629404583 -0.306809961795807 -0.05206839 0.2295203 0.9719101 210 211 208
3.49673981460364 2.24089617224255 -0.320798248052597 0.06972841 -0.6532122 0.7539573 198 199 196
3.52956448363692 2.25735301466503 -0.318329721689224 0.3006581 0.05147334 0.9523419 214 205 210
3.48605029898317 2.22876853437939 -0.323326081037521 -0.1973085 -0.5768921 0.7926316 192 194 187
3.48636164384515 2.22758252115765 -0.323993235826492 -0.005261368 -0.5466071 0.8373727 200 201 196
3.57284144180448 2.30900663824597 -0.327225297689438 0.2105618 0.3813034 0.9001508 206 207 208
3.48566482829482 2.29575962515392 -0.320308983325958 -0.3668104 0.8465195 0.3858172 200 201 199
3.53415311741264 2.2255660960249 -0.333081543445587 0.1174684 -0.3465983 0.9306293 206 206 203
3.56252258139283 2.22381658049145 -0.353155910968781 0.3314021 -0.7248249 -0.603988 189 190 185
3.46527172307105 2.28600782843151 -0.33136174082756 -0.7905087 0.5602282 0.2474678 192 195 189
3.53752601760061 2.29057795496502 -0.314371198415756 0.1226984 -0.2622623 0.9571643 210 212 211
3.53262232857377 2.31511861773052 -0.310112446546555 -0.1365533 0.5741348 0.8072933 201 202 200
3.51808919625909 2.29275733919659 -0.309878945350647 0.1724437 -0.2248791 0.959006 211 211 210
3.5265044035259 2.25537819357433 -0.317787110805511 0.1945557 -0.117226 0.9738615 237 190 222
3.46093513032974 2.27830202074566 -0.321309745311737 -0.5974925 0.8017292 0.01526431 197 198 197
3.52031308280856 2.32709426374951 -0.354089945554733 -0.4360137 0.8804756 -0.1861579 186 184 181
3.54842945056588 2.32322473021069 -0.325306415557861 0.06462222 0.8390972 0.5401295 197 199 198
3.60184100883634 2.27340943308392 -0.348307818174362 0.9450778 0.08970642 -0.3142941 180 181 178
3.55482790487439 2.28572983236828 -0.316839724779129 0.1804245 -0.09923404 0.9785702 211 207 208
3.44636862872721 2.27171940298596 -0.342903763055801 -0.5183382 0.7024553 0.4877315 188 187 184
3.46840741167397 2.29204565973797 -0.335275799036026 -0.8112661 0.5841324 -0.02523396 185 185 182
3.56997262554795 2.25770873518505 -0.328359484672546 0.1397747 -0.3223597 0.936241 215 216 216
3.49000141637952 2.29528147669354 -0.317295610904694 -0.545812 0.7535307 0.3664433 197 200 196
3.50819286572368 2.32555980177441 -0.340301811695099 -0.4123379 0.9108366 0.01881718 177 180 173
3.46427097039849 2.26175636740246 -0.308989375829697 -0.3084277 -0.1516787 0.9390772 207 208 205
3.49596886577637 2.24571461172619 -0.317810833454132 0.13389 -0.4047457 0.9045742 212 214 213
3.55489462482364 2.32562655897656 -0.332006692886353 0.3032432 0.7792819 0.5484189 199 200 201
3.43567170164169 2.22145933599987 -0.338478207588196 -0.7267902 -0.6484048 -0.2265991 162 163 145
3.51602097469003 2.22314948530712 -0.351554691791534 -0.1064619 -0.6538102 -0.7491316 182 181 174
3.4978072816375 2.2259516188673 -0.353066951036453 -0.045076 -0.6638387 -0.7465161 147 148 125
3.49562786760361 2.31535214872875 -0.337232828140259 -0.6524534 0.6815701 0.3313109 191 190 183
3.55416074263484 2.32667178602734 -0.353111445903778 0.09441911 0.9919133 -0.08481189 180 184 177
3.55963151770265 2.32760579081097 -0.348152160644531 0.02506399 0.9421639 -0.334214 180 183 176
3.46129095329524 2.27901370020428 -0.319174826145172 -0.5907214 0.7981377 0.1184249 202 200 197
3.58111432808072 2.30463296862164 -0.326602607965469 0.3553617 0.3347465 0.872733 215 214 214
3.46062378546775 2.20851630659619 -0.331295013427734 0.06765637 -0.7784829 0.6240088 206 206 201
3.59147766845853 2.28226060362377 -0.33354115486145 0.3637551 0.2809532 0.8881146 204 204 203
3.57472730296285 2.28991968126812 -0.32382720708847 0.4368955 -0.07065349 0.8967332 203 204 202
3.52831909673841 2.32473690004864 -0.328203827142715 0.102525 0.942959 0.3167287 196 198 197
3.55245575922162 2.32117874117413 -0.32326677441597 0.08456654 0.8259062 0.5574293 202 203 202
3.50723659115464 2.29037780256786 -0.308722496032715 0.005766477 0.02854539 0.9995759 206 206 202
3.52212555574805 2.29156751127758 -0.310979783535004 0.2013674 -0.2458943 0.9481493 212 214 212
3.5743981661144 2.32442564459362 -0.339456707239151 0.2158567 0.7409472 0.6359269 200 200 199
3.48619855808646 2.2090055415205 -0.336254328489304 -0.0930978 -0.9450275 -0.3134577 184 185 176
3.55460551994474 2.31922168226757 -0.32108736038208 0.4176141 0.5554607 0.7190702 201 202 198
3.45649846325249 2.24360377283611 -0.313943088054657 -0.2902111 0.05325913 0.9554794 209 209 206
3.55850474404723 2.24590737314739 -0.33056116104126 0.09897955 -0.3092848 0.9458044 221 221 223
3.49422681572468 2.2855185935072 -0.308889329433441 -0.1707548 0.3004149 0.9383996 205 207 201
3.49464935677678 2.3084358641676 -0.355824589729309 -0.543192 0.7886704 -0.2879956 170 171 162
3.4439445846583 2.26202315779247 -0.329982936382294 -0.2707116 0.961513 0.04698903 188 191 187
3.5003870004657 2.27333540411511 -0.309033870697021 0.0880939 -0.322587 0.9424314 209 210 206
3.53009821342857 2.28301674814739 -0.314549118280411 0.2673669 -0.2322256 0.9351931 239 191 223
3.47890418822498 2.28928811045208 -0.315972417593002 -0.5626711 0.8113285 0.1585788 191 194 190
3.43028987998695 2.24191910715618 -0.340657621622086 -0.9558995 0.1758751 -0.2352107 170 172 165
3.5003091642502 2.2207699486784 -0.329249054193497 -0.07049043 -0.7050599 0.7056357 191 194 187
3.54264097529084 2.28452891798535 -0.316795229911804 0.07067461 -0.1900735 0.9792227 233 207 224
3.59706409888894 2.30519337149182 -0.351189970970154 0.9323273 -0.3437973 0.1121126 189 189 184
3.45475270653696 2.20927245111981 -0.329805016517639 0.06204836 -0.7804589 0.6221204 212 211 207
3.56750409918458 2.28070384951153 -0.320909440517426 0.3849132 -0.2851954 0.8777844 202 202 200
3.55887539553077 2.32487041445294 -0.334386229515076 0.3058518 0.7182342 0.6249754 198 201 200
3.47881523388059 2.29787225218334 -0.328693091869354 -0.4109819 0.7240928 0.5538804 191 194 190
3.44309950534807 2.24147433729687 -0.356803089380264 -0.5954722 0.07052131 -0.8002747 128 129 101
3.59356812256009 2.28855413885632 -0.336788058280945 0.180205 0.1351053 0.9743063 195 194 190
3.48726602884562 2.24770123453655 -0.314593583345413 0.2176339 -0.1597228 0.9628729 207 208 209
3.51101720946462 2.21656674833813 -0.333096385002136 0.2528984 -0.5358875 0.8055228 199 200 196
3.49656190218956 2.24859077425518 -0.316906452178955 0.07300746 -0.3071241 0.9488649 208 211 209
3.47811841274233 2.28952533693829 -0.321546971797943 -0.746236 0.5703547 0.3432598 190 193 187
3.53619167822034 2.26526994200268 -0.31993094086647 0.2561819 -0.164592 0.9525126 211 211 211
3.45657629946799 2.232311911302 -0.315972417593002 0.1156239 -0.195567 0.9738504 199 199 190
3.49914162101776 2.21756011934796 -0.330264627933502 0.2150425 -0.03534861 0.9759647 200 200 194
3.55640687661798 2.33059687109509 -0.337499707937241 0.104665 0.8650871 0.4905809 189 190 186
3.44094232896895 2.26157838793316 -0.319475054740906 -0.8175159 0.4954073 0.2936653 192 191 186
3.42695403898687 2.22813100309887 -0.325668573379517 -0.9064914 -0.4013155 0.131222 190 189 182
3.50209939720661 2.30083007307568 -0.312169551849365 -0.4842475 0.7564221 0.4396931 199 201 199
3.51713291423948 2.330385632234 -0.336943715810776 -0.1391448 0.9824333 0.1243524 177 178 165
3.42944479974539 2.24449891539135 -0.347907513380051 -0.8284233 0.3691942 -0.4212012 151 153 127
3.44087561181367 2.21732289286175 -0.337588638067245 -0.535572 -0.7880679 -0.303499 187 187 177
3.54902354496152 2.2611557910017 -0.323377966880798 0.08941406 -0.1978093 0.976154 220 217 219
3.44245457610668 2.21539921255627 -0.326391339302063 -0.06391905 -0.4439154 0.8937861 216 214 213
3.45739913972647 2.27492172213116 -0.329938471317291 -0.7910977 0.6049314 0.09067779 189 192 191
3.47374475615651 2.24547738523998 -0.314904928207397 0.06546444 -0.3077962 0.9491975 209 209 206
3.5067176842931 2.32114905806103 -0.334401071071625 -0.3524147 0.6307414 0.6913531 199 202 200
3.44269920427904 2.25179321260967 -0.316550612449646 0.07151063 -0.02045504 0.9972301 203 203 198
3.43527140057267 2.23226744623699 -0.348663628101349 -0.6946343 -0.4528037 -0.558974 162 164 150
3.49447144436271 2.2561965653471 -0.314059853553772 0.1454447 -0.3823977 0.912479 208 208 208
3.6038869978729 2.26951760740795 -0.339768052101135 0.9596748 -0.09172527 0.2657269 183 183 177
3.46938592436344 2.28497368784466 -0.324200809001923 -0.54884 0.6342767 0.5444884 188 189 184
3.51513882594735 2.31944400759258 -0.328959941864014 -0.3362307 0.7184179 0.6089537 197 198 196
3.44804290259344 2.23736972303906 -0.317954838275909 -0.5028781 -0.1023488 0.8582764 201 202 197
3.60237475352914 2.26762730570355 -0.34906393289566 0.9591068 -0.00392235 -0.2830172 183 184 176
3.45482260043354 2.27142710180798 -0.313424468040466 -0.6666309 0.5313662 0.5227364 193 193 190
3.59165558832319 2.32246858568707 -0.350198119878769 0.4138353 0.9039074 0.1081288 197 199 198
3.45017148632177 2.26622623892346 -0.314927160739899 -0.416552 0.6752555 0.608699 187 189 188
3.49998669939668 2.28890258760967 -0.30897456407547 0.08218247 0.1190754 0.9894782 204 205 203
3.45061626502865 2.26660437078991 -0.329604864120483 -0.7022163 0.6982712 -0.138959 182 185 181
3.45662077710585 2.27327603788891 -0.332280963659286 -0.7839926 0.5945634 0.1784658 192 195 190
3.58818631487519 2.24478787870922 -0.353500604629517 0.4445873 -0.8943883 -0.04910822 182 185 176
3.43825141767592 2.21979135962048 -0.341191351413727 -0.5190019 -0.7668905 -0.3775129 165 166 151
3.54708876329095 2.33243162127056 -0.344527184963226 -0.2197846 0.9055682 0.3628235 185 186 184
3.58918706195981 2.25323874445477 -0.337699830532074 0.7174842 -0.5836866 0.3801662 196 196 192
3.56261153387458 2.27394325228253 -0.322154819965363 0.3436638 -0.2216516 0.91256 207 207 207
3.47871515768201 2.30356544943371 -0.337188363075256 -0.6263504 0.7523806 0.2039819 191 192 187
3.43267389255197 2.25303859205761 -0.330089688301086 -0.6946244 0.5393682 0.4760031 194 196 189
3.47223250808747 2.23738235922375 -0.316550612449646 0.1606028 -0.2263826 0.9607068 198 198 192
3.49213190617592 2.24916905851879 -0.316239267587662 0.2147049 -0.2573619 0.9421606 211 213 212
3.50914914029271 2.27109665365734 -0.314993888139725 0.3711214 -0.590846 0.7163588 207 207 204
3.60139623897702 2.25761980505505 -0.345817059278488 0.6297676 -0.5499977 0.5485392 190 189 181
3.59705964344175 2.30734605284252 -0.357625931501389 0.9690823 -0.05139283 -0.2413261 175 177 170
3.46298111191572 2.2829721638731 -0.342748075723648 -0.8252366 0.545492 -0.1463663 173 173 167
3.54001677649648 2.330385632234 -0.343504220247269 0.009921513 0.8721673 0.489107 193 194 190
3.4660649118814 2.27766448946514 -0.351643651723862 -0.6848773 0.6242957 -0.3757632 181 180 178
3.47926001119048 2.2934245535902 -0.322021394968033 -0.5525453 0.6908227 0.4663236 194 197 196
3.55591761934192 2.32743901701489 -0.357637047767639 0.1105076 0.9938729 0.002154197 201 203 200
3.51217363643081 2.24334246607342 -0.319942057132721 0.1172583 -0.2843529 0.9515219 207 208 206
3.55440536754758 2.25078136415997 -0.327948063611984 0.1795467 -0.3536612 0.9179797 206 207 207
3.49558339136274 2.2899107405714 -0.308411180973053 -0.1172172 0.05377958 0.9916491 215 216 215
3.59005436914594 2.25343889685192 -0.338967442512512 0.6881927 -0.5777652 0.4388373 183 185 177
3.476146560708 2.24546260328808 -0.314445346593857 0.01572518 -0.279917 0.9598954 198 200 195
3.55669598149688 2.2593099543623 -0.325268268585205 0.153325 -0.2991487 0.9418076 219 220 217
3.5545313866678 2.3270053336195 -0.351302653551102 0.1236499 0.9819783 -0.1429313 179 182 177
3.43353676291735 2.22190410585919 -0.334208339452744 -0.8055862 -0.5727492 -0.1516221 179 181 169
3.5206837342921 2.2292429873518 -0.324363887310028 0.1964396 -0.3387989 0.9201232 201 202 200
3.48822230341465 2.27921385260143 -0.305853664875031 0.03706761 0.1188049 0.9922255 216 216 215
3.54762249308259 2.28906566591778 -0.316772997379303 0.06420368 -0.1010128 0.9928113 209 211 211
3.43095704781444 2.225640244203 -0.325979948043823 -0.7736456 -0.6219478 0.1210512 197 196 187
3.44203203645156 2.26197869272747 -0.319263756275177 -0.7788523 0.516882 0.3552775 199 200 192
3.55242610591085 2.21976918669262 -0.337277293205261 0.1100584 -0.5834819 0.8046341 201 201 197
3.49918609725864 2.21412045450726 -0.327981442213058 0.1972523 -0.2020962 0.9592959 199 199 194
3.46560530605347 2.23186714144268 -0.316550612449646 0.1025602 -0.308876 0.9455565 199 200 193
3.42986733893485 2.23317927809277 -0.330472201108932 -0.9143586 -0.2714492 -0.3004392 180 182 168
3.58169253783853 2.31477386446514 -0.332473695278168 0.3308186 0.5004562 0.8000641 206 207 210
3.43713947067589 2.24369830580273 -0.35110992193222 -0.6665795 0.1986289 -0.7184834 155 159 142
3.45066074289934 2.26889497728863 -0.318262994289398 -0.4955111 0.8329575 0.2462733 188 191 188
3.53053409474523 2.31878585310497 -0.31365954875946 -0.3671477 0.7074825 0.60388 190 190 185
3.56065451222093 2.30494434328594 -0.319308251142502 0.3305639 0.3198308 0.887939 214 214 212
3.47030216882558 2.28313238115826 -0.323222309350967 -0.5525652 0.7130239 0.4315884 195 197 195
3.46605008522601 2.24147433729687 -0.314593583345413 0.1715926 -0.2767417 0.9454999 206 204 196
3.46249185557098 2.24156326742687 -0.314104348421097 0.1179431 -0.2865014 0.9507925 198 197 190
3.46782920005352 2.21278614492932 -0.340034931898117 -0.02271459 -0.8974554 -0.4405199 189 190 186
3.44521220408932 2.26907295675793 -0.339790284633636 -0.4231924 0.6327261 0.6485105 190 191 188
3.46643926630349 2.28497368784466 -0.327836871147156 -0.691779 0.5382534 0.4813783 203 206 203
3.59512486177118 2.29726440401592 -0.35179191827774 0.9933659 0.1135834 -0.01797148 170 173 164
3.50721435117156 2.31063742132702 -0.319886445999146 -0.6649315 0.7111942 0.2281863 187 188 187
3.56639215218456 2.26082224340954 -0.326824992895126 0.1872112 -0.3506353 0.9176093 216 216 216
3.4465243011582 2.27251989336529 -0.34199196100235 -0.5152326 0.7043203 0.4883321 189 189 186
3.42435653189749 2.24320895166912 -0.32564190030098 -0.8300658 0.3915676 0.3970713 189 188 179
3.51239602136047 2.21954674215832 -0.330294281244278 0.219344 -0.6954545 0.6842743 194 195 191
3.51466439532668 2.32162351103344 -0.355023980140686 -0.4554469 0.86407 -0.2143621 165 170 159
3.45103880480018 2.22973222227612 -0.316139191389084 -0.4022476 -0.2406366 0.8833408 207 207 200
3.51097272949846 2.31283909769573 -0.319430559873581 -0.4635825 0.8396247 0.2830577 192 194 192
3.47411169911356 2.28693074675121 -0.323099970817566 -0.529349 0.7010188 0.4778727 198 202 200
3.45817750281275 2.27558893652477 -0.333318769931793 -0.7712027 0.626576 0.1124672 191 193 185
3.43645747712434 2.25878364534893 -0.331569314002991 -0.686965 0.6156266 0.3861126 187 188 184
3.58310101049573 2.26131147833386 -0.328337252140045 0.0552497 -0.3075646 0.9499218 215 216 217
3.49845221134455 2.31357295008221 -0.333007425069809 -0.4726206 0.5203344 0.7112538 203 203 197
3.51882307844789 2.22544009180584 -0.326269030570984 0.1883288 -0.583964 0.7896317 205 207 206
3.5546796457711 2.25705642195263 -0.325401723384857 0.1626812 -0.299773 0.9400377 213 214 215
3.53267793225677 2.3269164034895 -0.358893543481827 -0.3490252 0.9250408 -0.1499366 177 180 174
3.44736938070127 2.26460284681835 -0.313793003559113 -0.4664193 0.4418703 0.7662922 187 186 184
3.44837013267533 2.26849467249432 -0.321843504905701 -0.4975699 0.8658581 0.0520948 194 195 191
3.43251377212436 2.23560327978649 -0.348174393177032 -0.8276294 -0.2126851 -0.5194175 160 164 152
3.49104664715559 2.30187530012646 -0.325045883655548 -0.2889263 0.751403 0.5932243 199 200 198
3.44281039907218 2.26273483725109 -0.327558875083923 -0.5417224 0.8270993 -0.1498117 185 188 183
3.50821510570676 2.31142909021893 -0.321051776409149 -0.6239908 0.7128296 0.320171 191 194 193
3.47054235132963 2.26905066462078 -0.307521611452103 0.04182746 -0.2579605 0.9652496 208 209 208
3.52800775187642 2.21767873259106 -0.335320293903351 0.03465598 -0.3881665 0.9209374 210 209 205
3.45155030031309 2.24129647703686 -0.314727038145065 -0.3384677 0.2769003 0.8993141 209 208 204
3.56692588942678 2.23987311811962 -0.334030419588089 0.3306653 -0.3794783 0.864093 208 210 209
3.4843927571419 2.22118360491314 -0.323257863521576 0.2465111 0.05126854 0.967783 197 198 190
3.45639838798524 2.23880571814099 -0.314971655607224 0.006974626 -0.206052 0.9785162 204 204 199
3.43801123703451 2.25703269930401 -0.325330555438995 -0.7813619 0.6149413 0.1063988 191 194 191
3.55444984751374 2.30532235594311 -0.316506147384644 0.3633308 0.1393403 0.9211813 200 200 199
3.56514677273662 2.29435855837383 -0.318463176488876 0.2627204 -0.07515102 0.9619409 207 207 205
3.47663581798405 2.25530702562847 -0.312725514173508 0.06738377 -0.4487222 0.8911273 196 198 192
3.5965748341623 2.28885216208019 -0.336832523345947 0.3458632 0.2965381 0.8901931 202 203 199
3.48170629384548 2.22621840925732 -0.324334233999252 0.2095724 -0.04053204 0.9769527 208 208 199
3.48286271708638 2.20804924459973 -0.333074152469635 0.004506695 -0.9992432 -0.03863645 182 185 176
3.4929147163275 2.26411361189404 -0.311079829931259 0.1190381 -0.2555136 0.9594492 209 211 208
3.59303439276845 2.29271287413159 -0.33661013841629 0.5161318 -0.04796128 0.8551653 191 191 188
3.45742137877823 2.21109599562206 -0.326869487762451 -0.07053374 -0.8723259 0.4838104 200 200 191
3.5481784703079 2.31054849119702 -0.315082848072052 0.4854034 0.04694163 0.8730292 199 199 198
3.59103289859922 2.32082290144482 -0.340390741825104 0.3600525 0.819658 0.4455591 198 198 198
3.4486147609059 2.26531452627697 -0.314504623413086 -0.4093306 0.615415 0.6735821 178 181 175
3.45988990048499 2.25991041155377 -0.312792241573334 -0.6492456 0.04872228 0.7590166 204 205 200
3.44990461909764 2.21981365175762 -0.32019779086113 -0.5492274 -0.4670835 0.6929519 195 195 185
3.47043115513952 2.22968775721111 -0.31904137134552 0.2586566 -0.2919008 0.9208098 201 201 195
3.49433800818951 2.22079224081555 -0.328470706939697 0.2937827 -0.220834 0.9300129 198 199 195
3.54470919685991 2.30360991449871 -0.314871579408646 0.1402888 0.02599306 0.9897694 211 211 209
3.48803697767288 2.28964395018139 -0.309500873088837 -0.2214056 0.4995846 0.8374932 203 203 201
3.57542116063268 2.23377973528423 -0.343059420585632 0.7964058 -0.5343823 0.2831491 193 193 186
3.52814119177491 2.22519547434368 -0.352977991104126 0.02052029 -0.5893197 -0.8076393 190 192 184
3.43829589577944 2.22083658667126 -0.343192875385284 -0.5575799 -0.6612009 -0.5019143 166 169 155
3.55255953835876 2.24734539480724 -0.328648597002029 0.2178738 -0.3337138 0.9171511 210 211 211
3.4282142450902 2.24122232885876 -0.333274304866791 -0.8918192 -0.2373245 -0.3851435 162 164 146
3.5503356443587 2.32816178293743 -0.33865612745285 -0.3834558 0.7922172 0.4747142 190 192 187
3.43640558662445 2.22767145128765 -0.321057707071304 -0.02534064 -0.3297043 0.9437441 214 214 214
3.45037719638639 2.2429810235075 -0.317334532737732 -0.4287817 0.2778212 0.8596288 203 204 201
3.46195812112273 2.23066622705975 -0.349775582551956 0.1134753 -0.6181587 -0.7778195 158 157 140
3.51508694010408 2.25951022596874 -0.315483152866364 0.1798899 -0.1191938 0.9764386 212 213 211
3.54704428332479 2.25339443178692 -0.325846493244171 0.1206222 -0.2697139 0.9553558 210 210 211
3.51875635849864 2.26918405981579 -0.316928684711456 0.1074016 -0.3245364 0.9397558 210 203 206
3.4888672331217 2.2156772086195 -0.324942111968994 0.2419785 -0.2635518 0.9338024 206 205 201
3.45726570634724 2.25753087492504 -0.314282238483429 -0.5371817 -0.0284796 0.8429856 201 200 197
3.5733751790467 2.31401771994152 -0.328782021999359 0.2054453 0.4201607 0.8838875 204 207 206
3.4483034158693 2.21311969252148 -0.327581137418747 -0.08321506 -0.4750006 0.876042 215 214 210
3.4374508164692 2.2527272173933 -0.349375277757645 -0.9474113 0.1130698 -0.2993777 162 163 146
3.5720853196326 2.23168928118267 -0.352711111307144 0.9346576 -0.3153757 -0.1641748 173 176 166
3.52646881955297 2.32166797609844 -0.322297155857086 -0.4449829 0.7299279 0.5188405 198 200 200
3.56439065056474 2.30721265764752 -0.322377234697342 0.4013813 0.465494 0.7888018 214 215 216
3.46449891904921 2.27326495142498 -0.308033108711243 -0.4967637 0.1286654 0.8582954 209 210 209
3.51964592056901 2.27959198446789 -0.313881933689117 0.2406454 -0.3528406 0.9042087 208 207 205
3.57642192261846 2.24712306948223 -0.335498183965683 0.4170358 -0.4401578 0.7951995 207 208 206
3.57132919746072 2.28924364538708 -0.322199314832687 0.4482838 -0.05872916 0.8919599 200 201 198
3.5045679198447 2.24707860441723 -0.318285256624222 0.1106371 -0.3083298 0.9448239 206 207 205
3.59057328718335 2.30322451086559 -0.331183850765228 0.5378693 -0.2011212 0.8186861 192 192 188
3.52404922860295 2.32438106031933 -0.326024413108826 -0.1929567 0.7455412 0.6379154 202 201 199
3.48250689598353 2.21136290522137 -0.342792570590973 -0.2051796 -0.8296726 -0.519177 171 177 167
3.45199507878714 2.24854630919018 -0.317217797040939 -0.02337133 -0.1118849 0.9934463 217 217 217
3.58229616897733 2.2915056416563 -0.327485829591751 0.7115902 0.02142324 0.702268 188 188 182
3.46428209039004 2.28549630137005 -0.33557602763176 -0.8298974 0.540814 0.1370783 192 194 186
3.56812678890855 2.30178636999645 -0.320864975452423 0.2697859 0.4149672 0.8689176 217 216 218
3.44189860307232 2.26300162764111 -0.343504220247269 -0.6928234 0.6623854 -0.2850285 180 182 178
3.50318910422356 2.22644085379162 -0.352488726377487 -0.0004390011 -0.6547846 -0.7558154 144 143 117
3.52502773570449 2.32669395895519 -0.331806540489197 0.1070613 0.943844 0.3125641 197 199 194
3.60066235678823 2.2631351420454 -0.338137209415436 0.6535941 -0.4063109 0.6385344 191 193 187
3.5186674060169 2.24331278296032 -0.320716708898544 0.1063234 -0.2920573 0.9504725 220 219 220
3.5468107746783 2.22398347349682 -0.335487067699432 0.1649281 -0.3745983 0.9124006 207 206 205
3.43980814291717 2.26015502901592 -0.322777509689331 -0.8372169 0.5468449 0.005349902 185 187 179
3.53217384832532 2.25118536444225 -0.319753021001816 0.2868061 -0.113431 0.9512495 207 208 207
3.43842043316544 2.22719699831524 -0.32122078537941 0.09732224 -0.3199941 0.9424076 212 213 212
3.55885315554769 2.31302816362896 -0.322021394968033 0.5315338 0.2577924 0.8068549 200 200 198
3.45977870615751 2.2730537125639 -0.347551703453064 -0.602673 0.6935591 -0.3946657 179 183 179
3.54645124691159 2.32487041445294 -0.327403217554092 -0.07416009 0.8965758 0.4366373 193 194 192
3.44254797984467 2.25449747534313 -0.316061347723007 -0.04699539 -0.02073802 0.9986798 201 201 196
3.57462056594522 2.24086648912945 -0.35560217499733 0.6851755 -0.3854242 0.6180475 202 204 200
3.42608354295225 2.24130279512921 -0.321652859449387 -0.6909534 0.07378152 0.7191243 192 193 188
3.56869017946155 2.24288279505291 -0.333007425069809 0.3016788 -0.3807117 0.8740987 208 210 208
3.43869619591714 2.22009534330883 -0.343444913625717 -0.4904027 -0.7069376 -0.5096514 173 175 164
3.53107672798068 2.26878375502148 -0.318641066551208 0.1679658 -0.2386041 0.9564809 213 206 209
3.49243287610442 2.29909545870342 -0.321672976016998 -0.4362121 0.7987155 0.4144545 191 195 192
3.59170006828935 2.30730158777752 -0.333719074726105 0.6301098 0.2350935 0.7400626 190 191 189
3.58035821335942 2.31784290762463 -0.333630114793777 0.3096215 0.615024 0.7251758 207 209 208
3.52591729777486 2.27114111872234 -0.316906452178955 0.09318677 -0.2700897 0.9583151 247 189 234
3.56175163256557 2.27155620546856 -0.322347581386566 0.245626 -0.1983721 0.94885 210 211 210
3.46979363876016 2.28928811045208 -0.329893976449966 -0.5081753 0.6455849 0.5700684 198 200 198
3.43996381627948 2.25795335264721 -0.318351984024048 -0.7531198 0.4105839 0.5140345 189 191 186
3.5946267010513 2.31529874296703 -0.357879459857941 0.8779917 0.3276713 -0.3489441 174 177 170
3.551047294015 2.29595977755108 -0.316772997379303 0.1385703 -0.007977667 0.9903204 213 212 212
3.46080805043311 2.25940532179394 -0.311861395835876 -0.6053543 0.1579836 0.7801201 202 202 198
3.51301871108443 2.22306055517712 -0.326780527830124 0.1735478 -0.5809478 0.7952237 202 203 201
3.48157286139757 2.29400271864453 -0.320019900798798 -0.4875385 0.824899 0.2860906 189 191 188
