ply
format ascii 1.0
comment File exported by Rhinoceros Version 7.0
element vertex 495
property float x
property float y
property float z
property float nx
property float ny
property float nz
property uchar red
property uchar green
property uchar blue
end_header
3.6569935740772 2.32538921328106 -0.345639139413834 0.4642682 0.2387443 -0.8529104 209 208 202
3.72789130228193 2.34312862844982 -0.322065889835358 -0.3116398 0.3559414 -0.8810144 206 205 203
3.66077419238717 2.39172059984722 -0.345817059278488 0.6106366 0.05729433 -0.7898356 193 195 191
3.7337623597923 2.39180952997723 -0.320464670658112 -0.01447513 -0.390909 -0.9203155 190 191 187
3.65803880112798 2.30394358130016 -0.362807601690292 0.6392175 0.6697821 -0.3778796 190 191 189
3.65797208862931 2.30374342890301 -0.361829102039337 0.6347762 0.6793011 -0.3682514 194 195 193
3.65290161090524 2.31059295626202 -0.359961032867432 0.9017351 0.3652489 -0.2312292 185 188 180
3.65510327237279 2.30638975592175 -0.363452553749084 0.734976 0.6269172 -0.2584279 186 186 183
3.74408123510511 2.39265460463085 -0.339145362377167 -0.8749564 -0.3996612 0.2733535 173 176 172
3.66531094031961 2.29889530630627 -0.363029986619949 -0.2597362 0.9095967 -0.3243006 186 186 180
3.65895060318143 2.30218667479077 -0.363029986619949 0.5602909 0.7463645 -0.3591854 186 187 183
3.66064075248868 2.30094129534283 -0.361206412315369 0.427268 0.8245702 -0.3708451 192 193 189
3.66038500385911 2.30183083506146 -0.359938770532608 0.4874269 0.7405562 -0.4625922 193 193 189
3.66148584204347 2.30067438574352 -0.360628187656403 0.1598175 0.8700027 -0.4664266 192 193 188
3.66220860796601 2.30078560801067 -0.358960270881653 0.2851917 0.8022792 -0.5244175 192 192 187
3.65917298811109 2.3033431241087 -0.360049962997437 0.5557992 0.6916944 -0.4611358 191 190 186
3.66826871650846 2.30452174635449 -0.362740874290466 -0.4635029 0.5820106 -0.6681532 185 185 177
3.66811304407747 2.30585617514172 -0.36225163936615 -0.4685819 0.5815879 -0.664971 179 181 170
3.67224948721559 2.30521113367596 -0.364275366067886 0.1224177 0.7119929 -0.6914334 189 190 172
3.67445113378198 2.30572266073742 -0.363319098949432 0.1737049 0.7232583 -0.6683742 194 192 175
3.67619911449582 2.30530900450268 -0.363287955522537 0.3419422 0.8009572 -0.4914703 193 193 182
3.67758682983548 2.30461067648449 -0.363430291414261 0.3095335 0.8441582 -0.4377053 195 196 189
3.67865428941877 2.30555588694134 -0.361673414707184 0.3567012 0.8865031 -0.2947482 194 195 190
3.67247187214524 2.30814666243115 -0.362540721893311 0.130105 0.708419 -0.6936968 196 194 185
3.67442890124948 2.30659002752819 -0.362852066755295 0.1565917 0.6811839 -0.7151696 192 190 171
3.67549636083276 2.30641204805889 -0.36276313662529 0.3414594 0.7278531 -0.5946724 185 187 165
3.72860295193822 2.38967461081066 -0.31993094086647 0.2363352 -0.2468414 -0.9397952 204 202 198
3.67562980073125 2.30747956724682 -0.361028492450714 0.3429587 0.7215636 -0.601436 196 196 191
3.6741620214525 2.30921418161907 -0.360806107521057 0.2790959 0.72813 -0.6260449 189 188 183
3.67736443000467 2.30627865286389 -0.360672652721405 0.4611886 0.7876109 -0.4086248 192 193 187
3.67611905055673 2.30832464190045 -0.36071714758873 0.4379061 0.7326673 -0.520996 195 195 191
3.67691964524419 2.30713481398144 -0.35983869433403 0.5404643 0.7230132 -0.4302909 193 193 186
3.67616353052289 2.30908078642407 -0.359471768140793 0.5099382 0.672105 -0.5368779 191 191 184
3.65250130611093 2.31565231771984 -0.359416157007217 0.9424749 0.1988441 -0.2687044 191 192 187
3.6524123461786 2.31726462336102 -0.359160423278809 0.9328299 0.1923367 -0.3046883 192 194 188
3.65023294704587 2.32106751890698 -0.361517727375031 0.891647 0.3989007 -0.2141116 192 193 190
3.65178965645463 2.31788737268963 -0.361428797245026 0.9475702 0.2381511 -0.2130604 192 194 186
3.65130040662915 2.31899923773327 -0.360806107521057 0.9453471 0.2745164 -0.1759533 192 195 191
3.65178965645463 2.31886584253826 -0.359427273273468 0.9356546 0.2430998 -0.2558376 194 197 192
3.65134488659532 2.31908828707256 -0.360049962997437 0.9453471 0.2745164 -0.1759533 193 196 191
3.64505126195581 2.3269164034895 -0.35947173833847 0.8102648 0.5780809 -0.09640198 186 188 182
3.64631888883741 2.32660502882519 -0.359427273273468 0.72953 0.6533614 -0.2022498 186 189 183
3.64360574501188 2.33158654661694 -0.360961765050888 0.901057 -0.0009197597 -0.4336997 178 180 172
3.64433962720067 2.33329898806133 -0.359649658203125 0.8580371 -0.09446251 -0.504826 189 190 185
3.64465097206266 2.33488900156536 -0.359304964542389 0.8403641 -0.1076958 -0.5312154 188 188 183
3.64943233745725 2.32398087473431 -0.362674176692963 0.8069312 0.53169 -0.2572311 186 188 183
3.64867620783479 2.3252039620451 -0.361117422580719 0.7245567 0.6067802 -0.3268566 186 189 185
3.64938785749109 2.32411426992932 -0.361784607172012 0.7917005 0.5547756 -0.2558013 186 188 183
3.64938785749109 2.32447010965862 -0.360005497932434 0.7674839 0.5662388 -0.3005694 188 190 184
3.64725292342336 2.32580441923657 -0.359160423278809 0.661061 0.6895277 -0.2958884 186 189 183
3.64402828233869 2.33923668356457 -0.362985521554947 0.9321544 -0.1854393 -0.310967 190 190 186
3.64396155493886 2.33478898497143 -0.361295342445374 0.8892865 -0.093596 -0.4476711 186 187 180
3.64401493089826 2.33750206919232 -0.361357629299164 0.8995432 -0.1559476 -0.4080471 187 187 182
3.64473991709382 2.33921451063671 -0.359026968479156 0.8950125 -0.1777883 -0.4090769 180 182 173
3.64511797445447 2.34054882021465 -0.361473262310028 0.9073356 -0.2148971 -0.3613327 188 189 185
3.64606685059697 2.34257251711407 -0.361932873725891 0.8913117 -0.3123168 -0.3286665 185 186 180
3.64525141435296 2.34092683287182 -0.359605193138123 0.9008225 -0.2226522 -0.372753 190 190 187
3.64558500664861 2.34128279181042 -0.359783113002777 0.9008225 -0.2226522 -0.372753 188 189 185
3.6464745612684 2.34435171576061 -0.361584484577179 0.8989095 -0.3487565 -0.2651992 184 184 177
3.64711948352487 2.34510786028423 -0.359338313341141 0.8779302 -0.3576147 -0.3183558 192 193 187
3.64680813866288 2.34653109999218 -0.360806107521057 0.8776999 -0.382542 -0.2886253 190 190 186
3.64943233745725 2.34960002394238 -0.359115928411484 0.8799602 -0.4485343 -0.156483 192 193 190
3.65121144669683 2.35200185270825 -0.359961032867432 0.9267838 -0.3592248 -0.1096784 185 187 182
3.65227892118127 2.35306937189617 -0.360405802726746 0.9480481 -0.3171417 -0.02502042 187 187 182
3.65275334435136 2.35782844515362 -0.362273871898651 0.9833306 -0.1817569 0.005028957 178 180 173
3.65254578607709 2.35988921614208 -0.362970679998398 0.9918455 -0.008795556 -0.1271423 179 181 173
3.65201205628545 2.36378855200329 -0.361562222242355 0.9914666 0.1004688 -0.08306613 179 182 172
3.65276817100675 2.36165351362744 -0.360628187656403 0.9905891 0.0757151 -0.1140189 178 180 172
3.65261251347692 2.36321026773968 -0.35918265581131 0.9942404 0.07983202 -0.07150403 187 188 184
3.65307951586873 2.36152011843243 -0.3605837225914 0.9936622 0.04439205 -0.1032703 182 185 177
3.65084672587545 2.36736447306194 -0.362024784088135 0.9599546 0.2059059 -0.1899736 172 174 161
3.65245682614476 2.36512286158123 -0.359638541936874 0.9825152 0.1528094 -0.1063638 183 184 178
3.65201205628545 2.36623484583416 -0.36071714758873 0.9786925 0.1684779 -0.1173722 188 189 183
3.65186378973157 2.3673467108778 -0.360984027385712 0.9808305 0.1674164 -0.09971634 185 186 180
3.65227892118127 2.36828071566143 -0.360539227724075 0.9797528 0.17423 -0.0986329 176 179 172
3.65018846707971 2.36977822275677 -0.362170070409775 0.955785 0.1980777 -0.2173481 180 184 175
3.65601505952508 2.40541977377453 -0.354846060276031 0.3933901 -0.6898023 -0.6077968 189 190 185
3.64756426828534 2.37432975264111 -0.362718641757965 0.8902797 0.1862803 -0.4155739 179 180 169
3.65174519138963 2.37046021910229 -0.359115928411484 0.966519 0.1977471 -0.1635148 183 185 180
3.65081114190252 2.37183899374523 -0.360628187656403 0.9581891 0.1835884 -0.2194743 188 190 184
3.64756426828534 2.37926680536785 -0.362674176692963 0.8197911 0.2051884 -0.5346403 187 190 182
3.64787561314733 2.37951881380596 -0.361754953861237 0.8410959 0.2043501 -0.500798 183 185 176
3.65043308454187 2.37664265127697 -0.359293848276138 0.9111103 0.148988 -0.3842923 182 184 177
3.64885412769944 2.37771005125561 -0.360895067453384 0.8691878 0.1808237 -0.4602341 179 181 172
3.65603730695874 2.30585605593243 -0.35738131403923 0.6162926 0.6904395 -0.3787832 188 191 183
3.65601505952508 2.30750174017468 -0.357314586639404 0.6154345 0.6771604 -0.4033535 192 194 187
3.65663774924905 2.30728680582562 -0.355987668037415 0.5418299 0.6148252 -0.5730709 190 191 185
3.65579265969426 2.30923647375622 -0.355935752391815 0.6614862 0.4847564 -0.5722301 191 192 185
3.65422705429227 2.30969447584667 -0.357763797044754 0.8374287 0.403486 -0.3686628 190 191 184
3.65887646990449 2.30740541906872 -0.353986173868179 0.2261587 0.5849551 -0.7788965 188 188 177
3.65717147904069 2.30779082270184 -0.354000985622406 0.4433534 0.5642099 -0.6964947 190 191 184
3.65656361597211 2.30955512018719 -0.353882372379303 0.5266504 0.4494953 -0.7215215 190 191 184
3.6578683020416 2.30891770811596 -0.353304147720337 0.3927104 0.5195932 -0.7588158 190 190 181
3.6536577405277 2.31150478811779 -0.354935020208359 0.8003564 0.3007121 -0.5186539 195 195 190
3.65609512346418 2.31098432035961 -0.35355618596077 0.5609389 0.3846749 -0.7330571 197 198 193
3.65780901032121 2.31179387064495 -0.351984649896622 0.4501437 0.3365986 -0.8270864 202 202 196
3.66241987662942 2.30105251760998 -0.357870578765869 0.3800857 0.7365507 -0.559489 194 193 187
3.66090763228566 2.30205327959576 -0.358181893825531 0.3937177 0.7223308 -0.5685284 193 192 187
3.66424346583516 2.30107469053784 -0.358137428760529 -0.2602645 0.7749799 -0.5759068 194 192 186
3.66240504997403 2.3032540747694 -0.357055127620697 0.2513943 0.6930488 -0.6756362 199 197 194
3.66344285624654 2.3032540747694 -0.357270121574402 -0.2121912 0.7353671 -0.6435916 197 196 190
3.66135240214498 2.30423266382733 -0.356936514377594 0.2512249 0.6584526 -0.7094548 201 200 197
3.66117449718148 2.30409914942303 -0.356580704450607 0.2478499 0.657614 -0.7114171 197 196 192
3.65895060318143 2.30472189875164 -0.357470244169235 0.4845986 0.701358 -0.5227439 184 186 177
3.65984015780122 2.30543357821026 -0.354935020208359 0.2216731 0.614888 -0.7568182 189 190 181
3.66399884837301 2.30747956724682 -0.355557709932327 -0.2440475 0.5684701 -0.7856733 199 198 193
3.6641722978893 2.30985469313183 -0.352960199117661 -0.1088344 0.5650027 -0.8178796 194 195 190
3.66966976838739 2.30934757681408 -0.358893543481827 -0.2251701 0.7624342 -0.6066239 192 190 186
3.66544436531694 2.30890280695477 -0.35444575548172 -0.374396 0.5529897 -0.744332 194 195 187
3.66121897714765 2.3100592562727 -0.352755606174469 0.04778337 0.5578106 -0.8285916 191 191 181
3.66059627252252 2.3100592562727 -0.352221876382828 0.1137639 0.5382537 -0.8350693 189 189 178
3.66068523245485 2.31134910078564 -0.351198881864548 0.2141179 0.4731675 -0.854556 192 192 187
3.66148584204347 2.31072635145703 -0.352043956518173 0.07117822 0.538223 -0.8397915 189 190 181
3.67180470245511 2.31063742132702 -0.358004003763199 0.06945233 0.7344143 -0.6751385 179 178 167
3.67131545262963 2.31059295626202 -0.35764816403389 -0.07098205 0.7414525 -0.6672404 173 173 158
3.67402859645517 2.31065971346417 -0.358737885951996 0.3332541 0.685948 -0.6468516 181 182 171
3.6766172112766 2.3093565175108 -0.357327938079834 0.6173552 0.6188185 -0.4857326 197 198 191
3.67620801048906 2.31134910078564 -0.356803089380264 0.5623913 0.5978108 -0.5712602 194 194 187
3.67852086442144 2.30762404890576 -0.355813443660736 0.6562505 0.6290809 -0.4166443 199 199 197
3.67836517708928 2.30870265455761 -0.355780094861984 0.6751998 0.5981127 -0.4317018 195 197 192
3.67998862879903 2.30632311792889 -0.355913519859314 0.506721 0.7611994 -0.4047337 202 204 201
3.67995897548825 2.30773157568493 -0.353941679000854 0.5766246 0.6815141 -0.4506025 188 190 186
3.67754234986932 2.31103772612133 -0.354267865419388 0.6939155 0.5022077 -0.5160123 191 194 189
3.67907682674558 2.30959219427624 -0.353333830833435 0.6976904 0.5130864 -0.4999704 181 185 178
3.67865428941877 2.31041509600201 -0.354757100343704 0.7163395 0.4970595 -0.4896832 187 190 183
3.67899528759153 2.31161601038494 -0.351940184831619 0.7501746 0.4735046 -0.4615533 196 198 195
3.68136744814546 2.30894727201977 -0.349419772624969 0.539887 0.6787106 -0.4978694 195 196 195
3.65223444121511 2.31448478193798 -0.357959508895874 0.9287681 0.1719138 -0.3283831 188 189 186
3.65279041844041 2.31750924082317 -0.355424284934998 0.8718582 0.1355895 -0.4706153 199 198 195
3.65469183641107 2.31356186361828 -0.354112178087234 0.7375361 0.1912269 -0.6476672 202 202 198
3.65445833521516 2.31508523912945 -0.354000985622406 0.7613081 0.1330532 -0.6345919 202 202 198
3.65472520011098 2.31715340109387 -0.353578448295593 0.7331562 0.1030261 -0.672211 198 200 197
3.65018845217855 2.32255751581707 -0.358982503414154 0.8598129 0.4441655 -0.2518704 196 199 196
3.65018845217855 2.32206828089276 -0.358359813690186 0.8810286 0.4139563 -0.2289732 198 200 198
3.65196756141813 2.32077831717053 -0.357270121574402 0.8726702 0.335038 -0.3552412 194 197 194
3.65193792300851 2.32091183157482 -0.355068445205688 0.8003084 0.3703258 -0.4715562 202 202 199
3.6569713415447 2.31323952169933 -0.352244108915329 0.4988917 0.2508053 -0.8295804 201 201 197
3.65841687338979 2.31395108194866 -0.351065456867218 0.4733337 0.2573764 -0.8424444 201 202 196
3.65588161962659 2.31593031378307 -0.352800071239471 0.619166 0.1071384 -0.777917 200 201 196
3.65798986571462 2.31744260283032 -0.351181089878082 0.5669389 0.2357365 -0.7893089 200 199 193
3.65565923469693 2.31837660761395 -0.352711111307144 0.6284341 0.1922726 -0.7537253 196 198 194
3.65603730695874 2.31959981413403 -0.352422028779984 0.6532833 0.3050664 -0.6929324 189 191 185
3.65534788983495 2.32126767130413 -0.352933526039124 0.6887811 0.3846065 -0.6145392 199 200 197
3.65365772562654 2.32300228567639 -0.352844566106796 0.71211 0.4942959 -0.4985689 182 186 173
3.65445833521516 2.32346493692913 -0.351616948843002 0.6831703 0.5081433 -0.5244699 192 194 188
3.65679342168004 2.32122320623913 -0.351265609264374 0.6829988 0.4688057 -0.5601195 188 190 184
3.65860960500867 2.31935507746258 -0.350116580724716 0.6287248 0.4088663 -0.6614632 191 192 184
3.65648207681806 2.32298011274853 -0.349175155162811 0.6986507 0.5247282 -0.4863616 188 190 184
3.64453976469667 2.32780594320812 -0.357448041439056 0.7727948 0.4532387 -0.4442555 187 189 182
3.64409499483735 2.32860655279675 -0.356091439723969 0.8226151 0.2927722 -0.4874308 191 190 188
3.6452069343868 2.32745010347881 -0.354890555143356 0.730695 0.4392274 -0.522651 193 193 186
3.6470750035587 2.32802826853314 -0.355513244867325 0.7123223 0.4509031 -0.5378507 194 194 189
3.6444508196655 2.32979256601849 -0.358181893825531 0.8977959 0.2066389 -0.3889252 187 188 181
3.64534037428529 2.33109731169262 -0.356135934591293 0.838693 -0.07119194 -0.5399312 191 192 188
3.64669694619806 2.330385632234 -0.354267835617065 0.8036427 0.04795068 -0.5931771 193 193 187
3.64880964773328 2.32464796991863 -0.357158899307251 0.7012686 0.6624295 -0.2634569 186 188 183
3.65067771690519 2.32384736033001 -0.357959508895874 0.8337789 0.4625078 -0.301495 196 198 195
3.65023293214471 2.32461471052685 -0.355591058731079 0.7597718 0.5574986 -0.3345777 194 195 192
3.65081114190252 2.32369167299786 -0.355579942464828 0.7570726 0.526929 -0.3862472 195 197 193
3.64815730469854 2.32750935049572 -0.355928361415863 0.676415 0.5478202 -0.4922964 196 196 193
3.65005502718122 2.32660502882519 -0.354223370552063 0.6877158 0.5870975 -0.4270404 187 189 186
3.64743082838685 2.33167547674694 -0.355068445205688 0.8090438 -0.1076867 -0.5777991 193 194 190
3.64874292033345 2.33463329763928 -0.354801595211029 0.7714887 -0.268067 -0.577014 188 189 186
3.65242717283399 2.32527071924725 -0.351554691791534 0.6575249 0.5902947 -0.468202 203 204 203
3.65058875697286 2.32684964628735 -0.351732611656189 0.7127397 0.5610679 -0.4209571 202 202 198
3.65152279155881 2.32642704935589 -0.351465731859207 0.6938823 0.5688415 -0.4415276 203 202 203
3.65272370594175 2.32562655897656 -0.350376039743423 0.6468996 0.606479 -0.4622814 201 201 199
3.65045533197553 2.32882887812176 -0.348930507898331 0.7181086 0.4845141 -0.499566 199 199 196
3.65472520011098 2.32482594938793 -0.348797082901001 0.6628317 0.5638471 -0.492677 197 198 193
3.65490311997564 2.32584888430157 -0.3479223549366 0.6122883 0.4800074 -0.6282483 197 198 191
3.64805351811082 2.33056349249401 -0.352977991104126 0.8143182 0.06824731 -0.5763924 192 192 189
3.6490765126291 2.3337659308485 -0.352577686309814 0.8767527 -0.2909967 -0.3829173 194 194 192
3.64885411279828 2.33323223085919 -0.350309312343597 0.9232262 -0.2604017 -0.2825674 194 194 191
3.64952129738958 2.33385486097851 -0.350042462348938 0.9383842 -0.2606229 -0.2269598 194 194 192
3.65717147904069 2.32224614115276 -0.347640663385391 0.6644842 0.5319313 -0.5248903 187 188 181
3.658743030006 2.32060045691052 -0.345965296030045 0.5453544 0.5530077 -0.6298977 196 196 189
3.65672670918138 2.32333583326855 -0.345439016819 0.5674877 0.3666569 -0.7372384 209 207 203
3.65781641619832 2.32342476339855 -0.345594674348831 0.5293052 0.3486716 -0.7734753 207 207 200
3.65826860683591 2.32575995417156 -0.344912678003311 0.4496746 0.2100226 -0.8681493 206 205 196
3.65390235798986 2.32729441614666 -0.346840023994446 0.5738704 0.3690651 -0.7310703 207 206 203
3.65461400764615 2.32722765894451 -0.346417486667633 0.5477293 0.3246713 -0.7710909 209 209 206
3.65303505080373 2.32922930212536 -0.346439749002457 0.4662278 0.3721186 -0.8025954 214 212 212
3.65543684976728 2.32753903360882 -0.345683634281158 0.4631579 0.2674392 -0.8449622 207 206 204
3.65116696673066 2.33020777197399 -0.346840053796768 0.6474822 0.2695865 -0.7128043 204 202 201
3.65201205628545 2.32922918291607 -0.347040206193924 0.5575863 0.4479284 -0.6988975 207 206 204
3.64994383471639 2.33245391340771 -0.347329318523407 0.7759957 0.1025698 -0.6223425 197 197 195
3.65823895352514 2.32937747927227 -0.345164716243744 0.2779066 0.03937754 -0.9598007 201 201 194
3.65681565421254 2.33154196234265 -0.345149874687195 0.229078 0.09250957 -0.9690022 198 197 194
3.6582834334913 2.33065254183331 -0.345016449689865 0.2435004 0.04153253 -0.9690111 196 197 191
3.65456952767999 2.33196467848339 -0.346150636672974 0.3206475 0.08083209 -0.9437432 199 198 194
3.65622263270051 2.33317286463299 -0.345268487930298 0.2308418 0.1242243 -0.9650287 195 193 188
3.66273122149141 2.31241661997357 -0.350976496934891 0.005810727 0.5478599 -0.8365499 196 196 192
3.6602849425617 2.31346184702435 -0.350042462348938 0.3116147 0.3911502 -0.8659664 197 196 190
3.66241987662942 2.31392878981152 -0.349152892827988 0.3471285 0.4750678 -0.8085867 195 195 190
3.66393212097318 2.31502956839123 -0.348374545574188 0.1148355 0.6468118 -0.7539544 203 204 202
3.66913602369458 2.31446260901013 -0.351688146591187 -0.2966865 0.8009919 -0.5199896 180 181 170
3.6695363284889 2.31548554392376 -0.349019467830658 -0.1312069 0.8728698 -0.4699819 188 190 183
3.66949184852273 2.31601924391308 -0.348396778106689 -0.08591154 0.8862769 -0.4551181 190 192 187
3.66039613502652 2.31933278532543 -0.349464237689972 0.5913329 0.483478 -0.6454258 187 189 181
3.6719603748861 2.31263894529858 -0.35649174451828 0.01489236 0.7779635 -0.6281331 183 183 171
3.67331694679887 2.31246108503857 -0.357158899307251 0.2762898 0.71865 -0.6381271 186 185 177
3.67505159097345 2.31388432474651 -0.35611367225647 0.3991444 0.7005278 -0.5915611 187 188 178
3.67238291221292 2.31526309938946 -0.351821571588516 0.08730026 0.9290618 -0.3594758 188 191 182
3.67500711100728 2.31588584871807 -0.352355301380157 0.2666102 0.8425877 -0.4679369 197 198 194
3.67233843224675 2.31615275831738 -0.348930507898331 0.004233261 0.9325744 -0.360953 181 184 176
3.67393963652284 2.31646401377239 -0.349375277757645 0.05530288 0.92784 -0.3688557 187 189 182
3.67291664200456 2.31637508364239 -0.349108427762985 0.004233261 0.9325744 -0.360953 188 190 185
3.6772754849735 2.31424016447582 -0.352444261312485 0.5808086 0.6761196 -0.4533472 189 192 185
3.67812055962712 2.31304819078961 -0.351581394672394 0.7193369 0.5325018 -0.4460899 191 193 187
3.67665279524953 2.3149740168623 -0.351843804121017 0.4295729 0.799596 -0.4196587 190 193 187
3.6785875769201 2.31375092955151 -0.3503537774086 0.6822427 0.5778524 -0.4479191 188 190 186
3.67740890997083 2.31548554392376 -0.349686622619629 0.4839754 0.7499682 -0.4509054 189 191 187
3.67849863188894 2.31561893911877 -0.34812992811203 0.5861356 0.6400003 -0.4968346 199 200 199
3.67705308514268 2.31619722338238 -0.348218858242035 0.434586 0.7898948 -0.4326676 195 195 192
3.66918050366075 2.3168198535017 -0.346617668867111 -0.007108164 0.7903251 -0.6126465 193 193 189
3.67054449635179 2.3168940016798 -0.345728099346161 -0.006259935 0.7920629 -0.6104074 193 192 190
3.65986239033372 2.32126755209484 -0.345016479492188 0.4723421 0.4747441 -0.7426379 197 195 185
3.66184166687162 2.3201556870512 -0.344527184963226 0.3482738 0.4819283 -0.8040214 192 190 182
3.66406556087167 2.31997782679119 -0.344705104827881 0.2851012 0.4440859 -0.8494145 190 187 178
3.66197509186895 2.3203781315855 -0.344393759965897 0.3363021 0.4434103 -0.8308359 194 192 184
3.6616192670408 2.32277996035137 -0.344660639762878 0.3048735 0.2916885 -0.9066256 193 191 172
3.66471048312814 2.31813199015179 -0.345928251743317 0.202863 0.6178203 -0.7597004 183 186 177
3.66597809510858 2.32171244116345 -0.343370795249939 0.2682835 0.2577116 -0.9282288 191 192 186
3.66644067185552 2.32326919527569 -0.342979371547699 0.2503484 0.1892982 -0.9494693 192 191 183
3.66833542900712 2.32273549528637 -0.342725843191147 0.2879751 0.2229933 -0.9313132 187 187 176
3.68132296817929 2.31214971037426 -0.347418248653412 0.6518012 0.5449737 -0.5274076 198 197 197
3.68085595088632 2.31301707716503 -0.347440481185913 0.6627185 0.5213122 -0.5376224 201 201 200
3.6805890859905 2.31477386446514 -0.345650255680084 0.6268483 0.504741 -0.5935467 199 199 197
3.67776473479898 2.31646401377239 -0.347507208585739 0.4382672 0.732603 -0.5207827 203 204 202
3.67976624386937 2.31717569323101 -0.345238834619522 0.4980746 0.5377323 -0.6802688 203 204 200
3.67224947231443 2.31928104849377 -0.34369695186615 0.01090317 0.7137433 -0.7003226 193 193 188
3.67462163286836 2.31935507746258 -0.343860030174255 0.03351774 0.7340366 -0.6782823 193 193 188
3.67033693807752 2.32193488569775 -0.342525690793991 0.203542 0.4040909 -0.8917854 196 197 189
3.67720875757367 2.31788737268963 -0.346328556537628 0.2806726 0.7437391 -0.606692 193 193 189
3.67836517708928 2.31973320932903 -0.343304038047791 0.1399409 0.4535584 -0.8801712 195 195 190
3.67705308514268 2.3201556870512 -0.34314838051796 0.06013425 0.5822202 -0.8108042 189 187 181
3.67984037714631 2.31931061239758 -0.343178033828735 0.2234917 0.3881344 -0.8940935 192 192 186
3.6791435541454 2.32117874117413 -0.342258840799332 -0.01531796 0.410366 -0.9117923 188 188 178
3.68092266338498 2.3203336665205 -0.342659115791321 0.1259021 0.208688 -0.9698443 184 185 171
3.67954385893972 2.32335812540569 -0.342436730861664 -0.2398514 0.4200983 -0.8752078 180 177 164
3.67080395537049 2.32262427301922 -0.34172511100769 0.1902043 0.3504605 -0.9170604 197 197 190
3.67240515964658 2.32324690313854 -0.341080158948898 0.1859002 0.4623253 -0.8670043 194 195 188
3.67594114559324 2.32269091101208 -0.341502696275711 -0.07284748 0.5819035 -0.8099887 179 179 166
3.66179717200429 2.32467026205578 -0.344260334968567 0.2471311 0.09807542 -0.9640059 197 194 182
3.66488098221452 2.32404012175121 -0.343622833490372 0.2706888 0.101472 -0.9573041 190 190 178
3.66056661921174 2.32718319387951 -0.34424552321434 0.2404349 0.04797215 -0.9694791 197 196 184
3.66473271566064 2.32776147814312 -0.343296647071838 0.3043713 0.009179197 -0.9525092 196 194 185
3.66455481069715 2.32558197470226 -0.343682110309601 0.2999191 0.07633961 -0.9509053 188 188 175
3.66602257507474 2.32785040827313 -0.342659115791321 0.3409975 0.006556184 -0.9400414 200 197 190
3.66844218092591 2.32749456854382 -0.3416628241539 0.4157615 0.07702667 -0.906206 198 196 185
3.66296843307645 2.32939226122418 -0.343593150377274 0.2747716 -0.04713048 -0.9603537 196 194 182
3.6621974767986 2.33087486715832 -0.344660639762878 0.2224499 -0.04956543 -0.9736834 196 197 188
3.66298325973184 2.33133441896954 -0.343578338623047 0.2382286 -0.06953254 -0.9687169 193 193 182
3.65863925831945 2.33412177057781 -0.344660639762878 0.1704494 0.1063678 -0.9796085 198 199 198
3.66258666532666 2.33305425138989 -0.344293683767319 0.1690883 0.04023423 -0.9847794 195 196 191
3.66295360642106 2.33421070070782 -0.344616144895554 0.1463878 0.03351511 -0.9886594 195 195 189
3.66633391993673 2.33114177675762 -0.342792570590973 0.3665686 -0.09964715 -0.9250394 189 188 180
3.66711229699285 2.33518928976574 -0.343548685312271 0.3550831 -0.05753286 -0.9330627 208 209 205
3.66842438893945 2.33336562605419 -0.342525690793991 0.4364489 -0.09389246 -0.8948165 199 199 196
3.66940290349157 2.32393629046002 -0.34185853600502 0.3066715 0.2207936 -0.9258524 199 197 190
3.6687802137676 2.32847303839245 -0.341547191143036 0.4424833 0.007240081 -0.8967475 197 195 188
3.67040365057618 2.33154208155193 -0.340946733951569 0.4935898 -0.1134321 -0.8622658 201 202 200
3.68127848821313 2.323625035005 -0.342837035655975 -0.1367481 0.326707 -0.9351805 188 185 175
3.67425098138482 2.32346934767285 -0.340335160493851 0.09972372 0.5256159 -0.8448569 190 191 185
3.67487367110879 2.3270497986845 -0.338834017515182 0.3120583 0.2619623 -0.9132335 194 193 187
3.68132296817929 2.32745010347881 -0.339501202106476 -0.2207678 0.6303731 -0.7442388 196 197 193
3.67703825848729 2.32519657106915 -0.339026749134064 -0.1130642 0.5329875 -0.8385349 196 195 192
3.6767417402807 2.32593781443157 -0.338433742523193 -0.1179539 0.5322201 -0.8383487 200 198 195
3.6780315996948 2.32567102404156 -0.338611632585526 -0.2546233 0.527374 -0.8105822 194 194 190
3.67831329124601 2.3270053336195 -0.337336599826813 -0.14762 0.4774473 -0.8661711 194 194 188
3.67807607966096 2.32767242880383 -0.336521178483963 0.07295049 0.2521043 -0.9649464 202 200 197
3.67078170793683 2.32940716238537 -0.340079426765442 0.4501835 0.02380931 -0.8926186 196 199 194
3.67273873704107 2.3294182488493 -0.33915650844574 0.4120274 0.04417666 -0.9100999 191 192 185
3.67245704548986 2.33502621145764 -0.339857012033463 0.4602311 -0.1313868 -0.8780233 200 199 197
3.67454009371431 2.33294314833203 -0.33878955245018 0.4131334 -0.09816312 -0.9053645 195 194 189
3.67392184453637 2.3354738423399 -0.339492291212082 0.4604929 -0.09335481 -0.8827407 197 197 190
3.67820951955945 2.32989639730969 -0.33661013841629 0.1412667 0.1694155 -0.9753677 201 203 198
3.680566853458 2.33129734488049 -0.337210595607758 0.1101555 0.3152743 -0.9425857 197 197 193
3.67683070021302 2.33358807058849 -0.33865612745285 0.4210513 -0.0950025 -0.9020479 199 198 193
3.67840225117833 2.3336176344923 -0.337484866380692 0.3595884 0.001273392 -0.9331102 195 195 189
3.68043341355951 2.33303207846203 -0.336031913757324 0.3336751 0.1251471 -0.9343442 196 196 190
3.6805312545839 2.33511812181988 -0.336120873689651 0.4353349 0.1062331 -0.8939788 189 188 181
3.64534037428529 2.33594531508007 -0.357781589031219 0.8192222 -0.06772657 -0.569463 190 190 180
3.64516245442064 2.33729452581921 -0.358092933893204 0.8506458 -0.04004245 -0.5242121 188 189 183
3.64591858404309 2.3372352788023 -0.356758624315262 0.7608554 -0.01711173 -0.6486959 187 187 176
3.64542933421762 2.33839160891094 -0.358270853757858 0.8484432 -0.121246 -0.5152121 187 188 183
3.64494006949098 2.33950359316387 -0.358181893825531 0.8664769 -0.1856803 -0.4634011 177 179 167
3.64671917873056 2.3367903897337 -0.356046974658966 0.7183665 -0.04866399 -0.6939606 189 189 182
3.64502902942331 2.3405711123518 -0.358226388692856 0.8852121 -0.1955756 -0.4220778 178 179 169
3.64701273160608 2.34308857412853 -0.357603698968887 0.8295134 -0.2881082 -0.4784362 189 189 185
3.64711948352487 2.34208328218975 -0.355424284934998 0.6953852 -0.1417349 -0.7045215 197 196 192
3.64883188026578 2.33667916746655 -0.355424284934998 0.7243471 -0.08076583 -0.6846884 186 187 181
3.65003277974755 2.33507806749859 -0.353356063365936 0.8114419 -0.2960748 -0.5038866 192 192 188
3.65014398711354 2.337057299333 -0.35444575548172 0.7578069 -0.1887364 -0.6245857 191 191 186
3.6478088857475 2.33963698835888 -0.355224132537842 0.6862871 -0.06200336 -0.7246831 197 195 185
3.64824922996194 2.34316856356182 -0.355246365070343 0.7261798 -0.2286515 -0.6483683 196 195 188
3.64729740338952 2.34515232534924 -0.358092933893204 0.8705633 -0.3401741 -0.3555293 190 191 181
3.64823142307431 2.34565634222546 -0.357499897480011 0.8459947 -0.3343436 -0.4153399 188 188 178
3.65193792300851 2.34196466894665 -0.352992832660675 0.8328893 -0.07760353 -0.5479718 199 199 191
3.64896532016427 2.3455748030714 -0.355646669864655 0.7909548 -0.2258458 -0.5686688 188 189 182
3.65038119869859 2.34396619291821 -0.353926837444305 0.7648544 -0.1366429 -0.6295446 189 191 185
3.64987710731656 2.34568602533856 -0.354668140411377 0.8113097 -0.1672296 -0.5601882 195 195 193
3.65195646005304 2.34371787996807 -0.353055834770203 0.830604 -0.07570966 -0.5516929 193 193 185
3.65187863128812 2.3455748030714 -0.353378295898438 0.8869535 -0.04426542 -0.4597327 188 190 182
3.65218996124894 2.33794683905163 -0.351198881864548 0.9293879 -0.3015758 -0.2128148 196 196 192
3.65201205628545 2.34008175821819 -0.351332306861877 0.9376716 -0.1383022 -0.3188172 200 199 191
3.65052204447419 2.33545608015576 -0.347284823656082 0.8529245 -0.261388 -0.4518806 192 192 189
3.65232340114743 2.33852512331524 -0.349419772624969 0.8975343 -0.2713273 -0.3475825 191 192 186
3.65201205628545 2.34066004248181 -0.351866036653519 0.8910421 -0.08629535 -0.4456425 200 200 192
3.65201946216256 2.34598249884167 -0.351777106523514 0.9360995 -0.02585602 -0.3507837 188 189 183
3.6523678811136 2.34301728697338 -0.349953502416611 0.9263951 -0.01540468 -0.3762377 195 195 183
3.64880964773328 2.34848815889874 -0.358137428760529 0.8906375 -0.3716346 -0.2620164 171 173 159
3.64956576245458 2.34777647944012 -0.356447279453278 0.8517761 -0.2543681 -0.4580114 190 191 186
3.64983264225156 2.3490886160902 -0.356158137321472 0.8917045 -0.2002492 -0.4059105 193 194 190
3.7153040530029 2.41662818880596 -0.335409224033356 -0.1870922 -0.8147395 -0.5488133 169 174 176
3.65023293214471 2.34799880476513 -0.354534715414047 0.8880959 -0.1015529 -0.4482998 192 194 188
3.65032189207704 2.35342521162548 -0.354912787675858 0.9822448 -0.08286171 -0.1683124 192 194 190
3.65076667683751 2.3528580138258 -0.354089945554733 0.9617773 -0.05873904 -0.2674588 195 196 194
3.65025517957837 2.35667199583569 -0.353222608566284 0.9371715 -0.2288841 -0.26329 194 196 192
3.65192309635312 2.34662003012219 -0.351688146591187 0.9444862 0.01619446 -0.3281517 180 182 174
3.65247907357843 2.34984464140453 -0.351888298988342 0.9373595 -0.03031676 -0.3470419 186 189 185
3.6524123461786 2.35133475752392 -0.350620657205582 0.9215141 -0.02965682 -0.3872109 182 186 180
3.65194532888562 2.3473317095808 -0.349597692489624 0.9528897 -0.04137107 -0.3004823 181 183 175
3.65214548128278 2.34966678114453 -0.349820077419281 0.9390787 -0.06848045 -0.336811 183 185 178
3.65245682614476 2.34853262396374 -0.348218858242035 0.8909616 -0.1233447 -0.4370052 193 194 191
3.65242717283399 2.35197216959515 -0.349983155727386 0.9072271 -0.02532636 -0.419878 187 190 184
3.65255690234334 2.35113460512676 -0.347473859786987 0.8196452 -0.1684348 -0.5475503 195 197 192
3.6521899761501 2.35302490683117 -0.350665152072906 0.8981204 -0.04186377 -0.4377525 186 190 187
3.65098906176717 2.35533768625775 -0.351910531520844 0.9013789 -0.1563424 -0.403823 201 202 201
3.65321295576722 2.35533768625775 -0.350042462348938 0.8626968 -0.1667291 -0.477447 195 196 195
3.65402837711007 2.35584182234326 -0.347714781761169 0.7721618 -0.1369306 -0.6204967 197 197 196
3.65423593538434 2.35696858854809 -0.34804093837738 0.7776091 -0.1901054 -0.5993197 197 198 197
3.65081114190252 2.33639008493939 -0.347462743520737 0.8059444 -0.3060331 -0.5067518 187 189 183
3.65090010183484 2.33538932295361 -0.346195101737976 0.655286 -0.2498272 -0.7128721 203 201 199
3.65264957266481 2.33557469339886 -0.345416754484177 0.4596005 -0.09182446 -0.883366 213 212 211
3.65260509269864 2.33676082582989 -0.345757752656937 0.5436097 -0.1471182 -0.8263443 207 205 203
3.65138936656148 2.33750206919232 -0.346306324005127 0.7495673 -0.3422468 -0.5665827 192 191 186
3.65158951895864 2.33912558050671 -0.347573935985565 0.8844059 -0.1823129 -0.4296374 189 188 184
3.65471037345559 2.33699805231609 -0.345490902662277 0.3894292 -0.05331221 -0.9195122 194 193 187
3.65608177202375 2.33751315565624 -0.34506094455719 0.3069897 -0.05197793 -0.9502924 200 200 196
3.65752730386884 2.34003729315319 -0.344794064760208 0.2579748 -0.09286831 -0.961678 206 206 206
3.65251243727834 2.34124929400005 -0.346250712871552 0.7091939 -0.04726876 -0.7034271 199 197 191
3.65481416004331 2.34110481234112 -0.345550179481506 0.4157824 -0.1077027 -0.9030643 190 190 185
3.65703805404336 2.34230572672405 -0.345728099346161 0.2849293 -0.05332392 -0.9570642 204 203 198
3.65343534069688 2.34341759176769 -0.345994979143143 0.56829 0.04579146 -0.8215532 197 197 193
3.65659326928289 2.34466309042492 -0.345616906881332 0.2784129 0.007966103 -0.9604285 193 195 191
3.65860960500867 2.34568602533856 -0.344942331314087 0.2606313 0.02146373 -0.9651998 192 194 191
3.65283489840657 2.3488217064909 -0.346261829137802 0.7762616 -0.1421635 -0.6141722 199 200 198
3.65299057083757 2.3470203349165 -0.345994979143143 0.6527371 -0.06127399 -0.7551025 197 197 192
3.6563886763397 2.34721607656994 -0.345034241676331 0.3233075 -0.009298932 -0.9462483 192 193 184
3.65301280337007 2.35146815271893 -0.346506476402283 0.7734025 -0.1470008 -0.6166355 207 208 206
3.65657103675039 2.35120124311962 -0.346350789070129 0.4876394 -0.09908505 -0.8674042 207 207 204
3.65488087254197 2.35209078283825 -0.346706628799438 0.6253881 -0.1694282 -0.761698 201 203 199
3.65668222921521 2.35326952429333 -0.345505714416504 0.4390521 -0.1329785 -0.8885663 207 207 206
3.65761626380117 2.35302490683117 -0.344927489757538 0.3531242 -0.104323 -0.9297419 203 204 202
3.65839462595613 2.35540444345989 -0.344905257225037 0.3571862 -0.1351657 -0.9242014 199 199 196
3.66006254273088 2.33492238016644 -0.344749599695206 0.1391374 0.06210408 -0.9883237 206 205 203
3.66019598262937 2.33752436132946 -0.34339302778244 0.1154556 0.01221169 -0.9932376 202 202 199
3.66362077611119 2.33603436441937 -0.344126909971237 0.174418 0.06789703 -0.982328 195 195 191
3.65899508314759 2.33790237398663 -0.34301495552063 0.1643313 -0.02022151 -0.9861979 209 210 208
3.66130792217881 2.33896989317455 -0.343281805515289 0.1691373 0.05814061 -0.9838761 204 204 202
3.66455481069715 2.33739084692516 -0.34403795003891 0.173621 0.115413 -0.9780264 194 195 190
3.70142695921094 2.41422636004009 -0.34301495552063 0.1708784 -0.8717161 -0.4592511 197 196 196
3.66148584204347 2.33985943289318 -0.344082415103912 0.2179585 0.05484296 -0.9744159 207 207 206
3.66844663637311 2.33510035963574 -0.343126147985458 0.4075984 -0.07123873 -0.9103783 200 202 198
3.66851333397062 2.3372797438673 -0.342347770929337 0.3731434 0.04962769 -0.9264454 199 200 195
3.66726795452268 2.33768004866161 -0.343103915452957 0.2974808 0.09992621 -0.9494841 208 208 205
3.65948433297307 2.34190542192974 -0.344705104827881 0.3023942 -0.07382734 -0.9503196 199 198 195
3.65917298811109 2.34261710138836 -0.344527184963226 0.296021 -0.03807782 -0.9544221 195 195 192
3.66388764100702 2.34355110617199 -0.342169880867004 0.2775848 0.09562588 -0.9559301 206 206 205
3.66611153500707 2.34123820753613 -0.342748075723648 0.2399782 0.1271703 -0.9624127 191 188 183
3.66817975657613 2.3404375979475 -0.342058688402176 0.2704738 0.1414088 -0.9522854 198 199 197
3.66891363876493 2.34048206301251 -0.342925995588303 0.3037244 0.1174448 -0.9454936 194 195 190
3.66437690573365 2.34497434587994 -0.342748075723648 0.2927405 0.03051727 -0.9557048 204 205 200
3.66544436531694 2.34470755548992 -0.342570185661316 0.2371323 0.05956861 -0.9696493 206 206 205
3.67004782574804 2.34306187124767 -0.341502696275711 0.2718686 0.02262925 -0.9620683 202 203 201
3.66864677386911 2.34319526644268 -0.341191351413727 0.2047271 0.0704784 -0.9762784 202 205 202
3.66860229390294 2.34568602533856 -0.341680616140366 0.20617 0.05480874 -0.97698 206 207 203
3.67420651631982 2.337057299333 -0.339975625276566 0.4701818 -0.06788851 -0.8799547 190 187 176
3.67260529714257 2.33874744864025 -0.341013461351395 0.4680415 -0.02678226 -0.8833005 192 190 181
3.67285733538301 2.33800620527783 -0.340450048446655 0.4681829 -0.05330398 -0.8820223 196 193 186
3.67389515655668 2.33990389795818 -0.340880006551743 0.4716485 -0.03953271 -0.8809 190 187 167
3.6734059067312 2.33856958838024 -0.340212851762772 0.4668602 -0.04785022 -0.8830356 197 194 185
3.67460680621297 2.33985943289318 -0.339323282241821 0.4823078 -0.0444521 -0.8748733 197 192 179
3.67848750072152 2.33524484129467 -0.337210595607758 0.4156562 0.01082196 -0.9094574 193 192 183
3.67855421322019 2.33900327177563 -0.337066054344177 0.5037372 -0.01473113 -0.8637313 201 200 196
3.68027774112851 2.33957023115673 -0.336343288421631 0.5023431 -0.02167731 -0.8643966 196 195 189
3.67220500724942 2.34154958220043 -0.341302573680878 0.4139494 0.03184269 -0.9097428 192 190 181
3.67055932300718 2.34527093859234 -0.341562002897263 0.26669 0.03070276 -0.9632932 205 206 204
3.67442888634832 2.34168309660473 -0.339011937379837 0.480042 -0.01462249 -0.8771237 199 195 184
3.67571876066358 2.34083790274182 -0.33865612745285 0.4942263 -0.02812085 -0.8688784 197 192 181
3.67650823908479 2.34330648870983 -0.33813351392746 0.4872071 -0.008436557 -0.8732457 194 190 180
3.67820951955945 2.34088248701611 -0.337655365467072 0.4892224 -0.03521343 -0.8714479 194 193 183
3.67838742452295 2.34426266642132 -0.33789998292923 0.445049 -0.003298776 -0.8955001 202 201 196
3.67647487538488 2.34573049040356 -0.33878955245018 0.4626708 0.02088536 -0.8862841 193 191 187
3.67976624386937 2.34346217604199 -0.336476713418961 0.4841146 -0.04006574 -0.8740869 201 203 197
3.68065579848916 2.34448511095562 -0.336343258619308 0.4838204 -0.003699634 -0.8751595 202 204 198
3.66065557914407 2.34724266024151 -0.344082415103912 0.324872 0.01495531 -0.9456397 199 199 197
3.65868373828561 2.34764308424511 -0.344349294900894 0.3073733 0.02361736 -0.9512959 199 199 198
3.66257554906041 2.34773201437512 -0.343081653118134 0.2941611 -0.0198383 -0.95555 201 200 197
3.66444361823232 2.34686464758434 -0.342303305864334 0.2593932 -0.02746454 -0.9653812 204 202 201
3.66037388759286 2.34971863718548 -0.34437894821167 0.299499 -0.02862914 -0.953667 206 207 204
3.66081867235334 2.35104555578747 -0.343926757574081 0.3034885 -0.05859835 -0.9510316 207 207 205
3.66239762919576 2.34975571127453 -0.343570917844772 0.2734488 -0.0219029 -0.9616371 198 199 197
3.66455481069715 2.35113448591747 -0.343037188053131 0.2415889 -0.06711375 -0.9680551 194 195 193
3.66906932609708 2.34753186197796 -0.342080891132355 0.2480354 0.02217739 -0.9684971 200 200 193
3.66499958055646 2.34939999075451 -0.342169880867004 0.2466198 -0.04586172 -0.9680265 197 195 192
3.6780315996948 2.40992683859387 -0.343266993761063 0.08046836 -0.7133284 -0.6961949 198 199 198
3.66855781393678 2.34946662874737 -0.341891884803772 0.2819839 0.001224571 -0.9594184 201 200 196
3.66199732440145 2.35660535784283 -0.344994217157364 0.2970346 -0.1804331 -0.9376643 187 189 185
3.65930642800958 2.35191292257824 -0.344260334968567 0.3130589 -0.0831087 -0.9460904 206 207 204
3.66024046259553 2.35306937189617 -0.34403795003891 0.3083897 -0.08736009 -0.9472402 202 203 198
3.66197509186895 2.35333616228619 -0.343281805515289 0.265409 -0.1227393 -0.9562913 200 200 195
3.65881716328294 2.35458154173412 -0.34403795003891 0.3264157 -0.09072483 -0.9408622 197 197 193
3.66139688211114 2.3572947451643 -0.344705104827881 0.2814013 -0.1707257 -0.9442807 182 186 181
3.66319823878438 2.3572058150343 -0.344349265098572 0.2985392 -0.1204276 -0.946769 192 192 190
3.66879133003385 2.35340291948834 -0.341880768537521 0.3554558 -0.005064831 -0.9346794 198 200 195
3.66652073579461 2.35544449778118 -0.342961579561234 0.3670232 -0.08338141 -0.9264672 197 198 193
3.66704556959302 2.35722798796215 -0.34237003326416 0.3847854 -0.0580925 -0.9211761 193 194 189
3.66762377935083 2.35551566572704 -0.342214345932007 0.3882599 -0.05866115 -0.919681 203 204 201
3.67045553641946 2.34749478788891 -0.34165096282959 0.2737344 0.05271532 -0.9603596 198 199 194
3.66837990897329 2.35071200819531 -0.341680616140366 0.3313223 0.005150137 -0.9435036 200 202 197
3.67459568994672 2.34735948534527 -0.340007126331329 0.4502313 0.07358047 -0.8898751 195 195 188
3.67232360559137 2.35146815271893 -0.339634627103806 0.4260043 0.02296457 -0.9044296 203 202 197
3.67794265466363 2.34755403490582 -0.337722092866898 0.4678624 0.07084101 -0.8809577 196 195 195
3.67794265466363 2.35155708284893 -0.337366253137589 0.4992863 -0.002366057 -0.8664339 198 198 198
3.67869876938493 2.34991139860668 -0.337099403142929 0.4972171 0.09490473 -0.86242 198 199 198
3.67115235942037 2.35311383696118 -0.340301811695099 0.4212988 0.00275082 -0.9069178 205 204 198
3.67057414966256 2.35490781755963 -0.34076139330864 0.391584 -0.03870155 -0.9193281 203 202 199
3.67149335759313 2.35591597052136 -0.34083554148674 0.368484 -0.1158584 -0.9223863 199 199 189
3.67247185724408 2.35691661329785 -0.340346276760101 0.3505062 -0.1459126 -0.9251243 191 191 181
3.6754518808666 2.35186845751324 -0.338834017515182 0.4469164 0.02173941 -0.8943115 207 206 203
3.67567428069741 2.35722798796215 -0.338967442512512 0.358639 -0.1975219 -0.9123394 187 187 180
3.67691966014535 2.35469288321057 -0.337922245264053 0.3997812 -0.152976 -0.9037551 200 199 198
3.67824510353238 2.35525757761517 -0.337357372045517 0.4896766 -0.1853598 -0.8519734 196 196 193
3.70027053969533 2.42174322100201 -0.353096604347229 -0.06220825 -0.808628 -0.5850222 182 181 172
3.65285713093908 2.35956305952587 -0.358092933893204 0.9887101 -0.1467588 -0.03023555 193 193 190
3.65254578607709 2.35822874994793 -0.356402784585953 0.9670265 -0.2546435 -0.004048006 198 197 195
3.6529683234039 2.36180920095959 -0.356024742126465 0.9881141 -0.1172897 -0.09936678 191 190 186
3.65266143398912 2.35962540598431 -0.353511720895767 0.9451959 -0.2267793 -0.2348955 193 193 188
3.65186378973157 2.36771733255901 -0.353407949209213 0.8919684 0.1725022 -0.4178941 205 204 201
3.65325743573339 2.36556763144055 -0.353689640760422 0.9093214 0.072619 -0.4097086 182 187 178
3.65094458180101 2.35782844515362 -0.352444261312485 0.9113147 -0.2695879 -0.3111717 195 197 193
3.65319812911184 2.35934073420086 -0.350175887346268 0.8266253 -0.2519167 -0.5032182 204 203 202
3.65411362665326 2.36339933367291 -0.351354539394379 0.918846 -0.03990052 -0.3925939 190 191 186
3.65494758504064 2.35934073420086 -0.347351551055908 0.7205009 -0.2313355 -0.6537295 205 205 205
3.65530340986879 2.36272103281536 -0.34804093837738 0.6978982 -0.1466599 -0.7010199 204 204 202
3.65645984428556 2.36169809790173 -0.347618401050568 0.6375567 -0.1431916 -0.7569793 208 208 207
3.65276817100675 2.36814732046642 -0.352577686309814 0.8528902 0.1183533 -0.5084985 207 206 204
3.6531239958349 2.36552316637554 -0.35226634144783 0.8993323 0.04910053 -0.4345003 188 190 186
3.65423593538434 2.36498946638622 -0.351221114397049 0.8648842 0.02662864 -0.5012646 194 195 194
3.6543604792896 2.36955279799023 -0.351359009742737 0.7698956 0.07111314 -0.6341954 199 199 195
3.65605953949125 2.36623484583416 -0.351287841796875 0.8048316 0.01043275 -0.5934114 192 194 190
3.65476968007714 2.36536747904339 -0.349019467830658 0.776083 -0.06884073 -0.6268621 194 195 193
3.65512550490529 2.36552316637554 -0.348352283239365 0.7423592 -0.08830632 -0.6641573 200 199 198
3.65490311997564 2.36900717707195 -0.350146234035492 0.7692664 -0.01402095 -0.6387744 195 196 192
3.65530340986879 2.36650163622418 -0.348396778106689 0.7552492 -0.04151645 -0.6541216 200 199 196
3.65136713402898 2.36950392218151 -0.357536971569061 0.9782642 0.1633172 -0.1277761 180 182 172
3.65158951895864 2.36990422697582 -0.357826083898544 0.9766694 0.167333 -0.1345979 186 187 182
3.65146348493726 2.37146837206402 -0.356239706277847 0.9738694 0.09776786 -0.2049873 189 190 185
3.65147831159265 2.37357360811749 -0.35853773355484 0.9675143 0.145724 -0.2065926 188 190 185
3.65138936656148 2.3740628430418 -0.358092933893204 0.9626499 0.1372801 -0.2333654 175 177 168
3.65098906176717 2.37317330332317 -0.35635831952095 0.970441 0.08198501 -0.2269861 185 185 183
3.65096682923467 2.37526387663403 -0.358070701360703 0.9406286 0.1398161 -0.3093044 184 185 179
3.65156727152497 2.37579745741406 -0.353489488363266 0.9354496 0.04544733 -0.3505261 192 192 189
3.65072219687135 2.37997848482647 -0.354712635278702 0.9081379 0.0889835 -0.4091059 192 193 186
3.65210101621778 2.36948174925366 -0.35304468870163 0.8772107 0.166141 -0.4504426 204 204 200
3.65118921416433 2.37315113039532 -0.353111445903778 0.9415051 0.03888669 -0.3347477 192 192 187
3.65190086382062 2.37366265745678 -0.351354539394379 0.7682086 0.06293962 -0.6370983 197 197 193
3.65413216369779 2.37094945402661 -0.351361960172653 0.7484096 0.07838949 -0.658588 198 198 193
3.65334638076455 2.37188345881024 -0.351777076721191 0.7765045 0.07365296 -0.6257923 195 196 190
3.65534788983495 2.37130529375591 -0.349464237689972 0.6842802 -0.02139667 -0.7289052 199 199 195
3.6557037146631 2.36983746977368 -0.348663628101349 0.726519 -0.07826037 -0.6826752 193 195 189
3.65598540621431 2.37094945402661 -0.349227011203766 0.6768633 -0.004242403 -0.7360965 201 201 195
3.65638571100862 2.36954099627056 -0.347788900136948 0.6751435 -0.06099301 -0.7351606 197 198 192
3.65708253400953 2.37361807318249 -0.348441243171692 0.5604912 -0.06545699 -0.8255695 200 202 194
3.65259026604325 2.37521929235974 -0.35158434510231 0.7493733 0.03939849 -0.6609746 196 196 193
3.65130040662915 2.37819928617993 -0.352577686309814 0.848442 -0.007249278 -0.5292388 194 194 192
3.65414699035318 2.37935573549786 -0.350865304470062 0.6094444 -0.04280934 -0.7916722 203 203 200
3.65401355045469 2.37481898756542 -0.35044276714325 0.5942888 -0.008935885 -0.8042021 195 196 193
3.65445833521516 2.37993401976147 -0.35008692741394 0.5772211 -0.05203947 -0.8149281 203 203 200
3.65610401945741 2.35982996912518 -0.346706598997116 0.6059703 -0.2086736 -0.7676297 207 207 205
3.65508102493913 2.3606305787138 -0.347596168518066 0.6707374 -0.2265565 -0.706246 200 201 199
3.65849099176557 2.3640553423933 -0.347136557102203 0.5338535 -0.1099252 -0.8384014 194 196 195
3.65837239342363 2.36441118212261 -0.347596168518066 0.5656221 -0.08129887 -0.8206474 196 197 195
3.65859477835328 2.36534518690624 -0.346328556537628 0.4926932 -0.00415754 -0.8701931 197 198 195
3.65717147904069 2.36707992048779 -0.346573173999786 0.5750165 -0.03966539 -0.8171797 204 204 201
3.65850581842096 2.3675988385252 -0.346009790897369 0.5061815 -0.04699772 -0.8611454 196 195 188
3.65806103366048 2.36975974531689 -0.346128404140472 0.4951433 -0.0975088 -0.8633221 190 190 182
3.65743834393651 2.37366253824749 -0.347329318523407 0.5257407 -0.1035108 -0.8443235 201 203 196
3.65862443166406 2.37953371496716 -0.348100244998932 0.5928832 -0.030165 -0.8047233 200 200 198
3.66233091669709 2.36111981363812 -0.344927489757538 0.4162484 -0.02147179 -0.9089974 181 184 187
3.66335391121537 2.35907382460156 -0.344660639762878 0.382004 -0.08481311 -0.9202607 180 184 186
3.66441248970659 2.36085290403881 -0.343957871198654 0.4118124 -0.01376209 -0.9111648 182 185 183
3.66255331652791 2.36303228827038 -0.344215869903564 0.4224967 -0.02879638 -0.9059069 194 195 195
