ply
format ascii 1.0
comment File exported by Rhinoceros Version 7.0
element vertex 499
property float x
property float y
property float z
property float nx
property float ny
property float nz
property uchar red
property uchar green
property uchar blue
end_header
3.82085005062253 2.44985312910595 -0.302851438522339 -0.3114051 0.3318394 0.8904546 210 210 210
3.82311839478643 2.44878572912731 -0.302273213863373 -0.2945573 0.3634919 0.8838041 211 210 210
3.82102794068486 2.45265526266613 -0.30454158782959 -0.1613024 0.4946531 0.8539906 196 198 195
3.82196197527082 2.45305556746044 -0.304185777902603 -0.07811455 0.518916 0.8512487 199 200 199
3.82803321498067 2.4532112547926 -0.305831432342529 -0.01816315 0.4448166 0.8954375 200 201 197
3.82699686902196 2.4512409636549 -0.302130877971649 0.01624371 0.6103327 0.7919786 201 202 200
3.8243015171829 2.45310897322216 -0.303936690092087 -0.05298739 0.5371782 0.8418028 201 202 203
3.82689902799756 2.45275909395733 -0.303904086351395 0.02972857 0.5696845 0.8213257 193 195 191
3.82716590779454 2.45327801199474 -0.304675042629242 0.02259715 0.5329251 0.8458606 196 198 195
3.81822583692701 2.45514602156201 -0.30529773235321 -0.4354613 0.6166872 0.6557975 202 202 203
3.82001978772313 2.45467156858959 -0.305342197418213 -0.279991 0.6334746 0.7213286 211 210 211
3.8196491362396 2.45643586607495 -0.305875957012177 -0.346761 0.5945162 0.7254704 199 196 197
3.82230666893155 2.45546848269024 -0.306242883205414 -0.2318873 0.5918505 0.7719724 212 212 211
3.82447499650151 2.45506448240795 -0.305987119674683 -0.05962396 0.4416799 0.8951893 205 206 205
3.82604504244954 2.45521718950787 -0.306044936180115 -0.06009002 0.4205038 0.9052987 196 200 195
3.82501614707143 2.45710308046856 -0.30624657869339 -0.1206908 0.4402868 0.8897085 204 205 202
3.82467514889867 2.45870429964581 -0.307788491249084 -0.352285 0.5110637 0.7840339 192 195 182
3.82804433124692 2.45978290529766 -0.306287348270416 -0.02065078 0.3697187 0.9289142 201 200 198
3.83385238664777 2.45784432383099 -0.307832956314087 0.2834727 0.3874313 0.8772345 184 184 178
3.83677310364873 2.45704383345165 -0.307773649692535 0.12554 0.4245834 0.896643 181 182 175
3.83859670775563 2.45703632326641 -0.307958960533142 0.08876126 0.4225876 0.9019651 181 182 174
3.83889693635137 2.45934922190228 -0.308989375829697 0.07528983 0.2823461 0.9563535 186 186 178
3.84055373685987 2.45772571058788 -0.308744758367538 0.06919636 0.373488 0.9250506 181 181 172
3.83077970760495 2.45311123819866 -0.304986357688904 0.1408142 0.4855027 0.8628201 199 200 194
3.8323549689594 2.45347077341595 -0.305312544107437 0.1356983 0.4591499 0.8779336 190 189 184
3.83484572785527 2.45384139509716 -0.307121306657791 0.1552343 0.5053157 0.848857 171 175 165
3.83115408437879 2.45093543024578 -0.30325174331665 0.1289462 0.5082406 0.8515071 186 188 182
3.83027935641439 2.44908220263043 -0.302673518657684 0.189715 0.473985 0.8598526 181 184 175
3.83213258402974 2.4514988133482 -0.303770631551743 0.1191134 0.4916462 0.86261 188 190 183
3.83422303813131 2.45148891897717 -0.303968340158463 0.1826588 0.4672505 0.8650507 181 183 174
3.84024239199788 2.45189911814251 -0.305208772420883 0.09593012 0.4082094 0.9078339 173 176 166
3.83881909268529 2.45332247705975 -0.305831462144852 0.05112708 0.5204406 0.8523659 171 174 165
3.83677310364873 2.45074278803387 -0.303563088178635 0.1315414 0.2984211 0.9453262 182 183 174
3.83837432282598 2.45056480856457 -0.303785473108292 0.1509778 0.09699798 0.9837668 184 183 175
3.8366396786514 2.45234388800182 -0.30454158782959 0.1184839 0.4923859 0.8622747 177 179 171
3.83182865994603 2.45712537260571 -0.306239157915115 0.3194258 0.37625 0.8697144 178 180 173
3.83197838681371 2.45528835745373 -0.305440038442612 0.1847795 0.3969168 0.8990626 188 189 183
3.83383757489354 2.45507926435986 -0.306298464536667 0.2186995 0.4499446 0.865864 184 185 177
3.83036831634671 2.45913428755322 -0.306513458490372 0.2090672 0.4112449 0.8872252 185 187 181
3.83015701788099 2.45984954329052 -0.306987881660461 0.2185325 0.3929113 0.8932325 181 183 175
3.83029416816861 2.45781464071789 -0.30603900551796 0.1522033 0.3512346 0.9238335 185 186 182
3.83223638551862 2.45612461061993 -0.304230242967606 0.2061942 0.3884389 0.8981087 191 192 189
3.83650625365407 2.45521277876415 -0.307121336460114 0.1528059 0.4907083 0.8578203 174 176 167
3.84057152884633 2.45515496225872 -0.307343691587448 0.0592768 0.496155 0.8662081 179 180 170
3.82311839478643 2.46230704279461 -0.31263655424118 -0.6930124 0.7005931 0.1700094 191 191 189
3.82120586054952 2.46043891401806 -0.308722525835037 -0.5648012 0.6739386 0.4762421 179 184 178
3.93589205163152 2.49130660982647 -0.334853261709213 0.7680749 0.5513483 -0.3256932 172 175 167
3.82572034614713 2.46281845064678 -0.311457902193069 -0.5944753 0.6736339 0.4391088 193 195 191
3.8266321780029 2.4654650160841 -0.311302244663239 -0.5455776 0.6956075 0.4674133 185 187 183
3.82481969016225 2.46152872534313 -0.309600949287415 -0.4545025 0.647036 0.6121861 185 189 185
3.82681006806524 2.46439749689617 -0.309345215559006 -0.4507156 0.6293446 0.6330725 194 195 190
3.82836679237516 2.46444196196118 -0.308322221040726 -0.1197653 0.5190163 0.8463323 180 182 175
3.82839349525602 2.46157760115185 -0.307325899600983 -0.09231295 0.4479489 0.8892807 192 191 188
3.83317042010457 2.46026105375805 -0.30863356590271 0.2504835 0.3250917 0.9119065 184 185 176
3.83191761987836 2.46499795408764 -0.309515714645386 0.08133345 0.3999009 0.9129425 177 180 173
3.83205846565397 2.46331519575634 -0.309019029140472 0.2270232 0.3212917 0.919365 185 187 180
3.8306796612087 2.46564287634411 -0.309523105621338 -0.1444394 0.5683951 0.8099779 183 186 180
3.83417115228803 2.46484226675549 -0.309723258018494 0.091864 0.2980954 0.9501053 181 182 175
3.83617267625959 2.46201784105816 -0.309545338153839 0.09709399 0.243194 0.965106 187 186 182
3.83830759542615 2.46130628080883 -0.309189558029175 0.08522131 0.2437556 0.9660851 185 185 178
3.84053150432737 2.46299643011608 -0.309834480285645 0.09017918 0.2178409 0.9718091 184 184 180
3.83641729372174 2.46373028250256 -0.309523105621338 0.09052598 0.1911245 0.9773825 184 184 178
3.83639062064321 2.46499342413464 -0.310065746307373 0.09745606 0.1894104 0.9770496 184 185 177
3.83014590161473 2.46777779551067 -0.312369704246521 -0.5304775 0.7327382 0.4262491 188 189 184
3.83152473586232 2.46764428110638 -0.31183597445488 -0.4479402 0.6726807 0.5889399 186 187 182
3.83240539448888 2.46906764002361 -0.311729222536087 -0.4329885 0.6038453 0.6692472 183 184 178
3.83259219544561 2.47049087973156 -0.313348203897476 -0.6440415 0.5579161 0.523393 185 186 182
3.83428237455518 2.47140271158734 -0.312013864517212 -0.4939953 0.5214928 0.695711 191 192 186
3.83468264954717 2.46871180029431 -0.310412675142288 -0.1316629 0.323223 0.9371188 178 178 172
3.83730686324269 2.46751088591137 -0.3108129799366 0.06013006 0.2090644 0.9760514 190 191 186
3.83808521049649 2.47153610678234 -0.311413407325745 -0.05567197 0.2931899 0.954432 193 194 190
3.83877459781797 2.4669994780592 -0.310412675142288 0.09241322 0.1788588 0.979525 191 191 186
3.84002000706823 2.46559829206982 -0.310635060071945 0.09408026 0.1831401 0.9785748 194 194 191
3.89975378530652 2.42427844496288 -0.36894553899765 0.3873506 -0.9213919 0.03156765 165 164 144
3.83948627727658 2.46848935576 -0.310635060071945 0.07973116 0.1521096 0.9851424 185 185 179
3.83205846565397 2.46070582361736 -0.307521611452103 0.2891177 0.3319054 0.8979141 180 183 173
3.82431930916936 2.44931942911663 -0.301517099142075 -0.1396067 0.4573362 0.8782674 202 202 200
3.82431930916936 2.45047587843456 -0.301783978939056 -0.1251873 0.5262015 0.8410946 198 199 198
3.82565364854963 2.44851881952801 -0.300583064556122 -0.08049162 0.3865434 0.918752 197 198 193
3.82858917730481 2.45052034349957 -0.302139788866043 0.09464418 0.575079 0.8126048 188 190 183
3.84493479746015 2.45663613768139 -0.308299958705902 0.00704973 0.4366829 0.8995879 186 187 180
3.84494221823842 2.45974213572064 -0.30944898724556 0.03708756 0.3090478 0.9503231 184 185 180
3.84839666503103 2.45702893229046 -0.308381527662277 -0.02084523 0.4563928 0.8895342 183 185 177
3.85056126731069 2.45696968527355 -0.308144301176071 -0.04577799 0.511165 0.8582626 178 181 171
3.84340030568273 2.44869679899731 -0.305386662483215 0.09311071 0.09281766 0.99132 179 180 172
3.84620240944059 2.44954175444164 -0.305097579956055 -0.04425093 0.4147032 0.9088802 193 193 187
3.84257007258565 2.45264048071423 -0.305445998907089 0.0951198 0.4554642 0.8851579 177 178 168
3.84624690430791 2.45345587225475 -0.306543111801147 -0.01970588 0.4614111 0.8869675 187 189 183
3.84495702999265 2.4526441762022 -0.305920422077179 0.04341811 0.4390225 0.8974264 177 179 172
3.84139881151349 2.45016450377026 -0.30351859331131 0.06198215 0.09738132 0.9933152 186 185 175
3.84458640831144 2.44921571703472 -0.304511934518814 0.0118254 0.238319 0.9711149 179 180 169
3.84649155157239 2.44925279112377 -0.304341435432434 -0.07248716 0.388823 0.9184565 183 185 178
3.84455675500066 2.45132095308819 -0.304586082696915 0.04952127 0.4464704 0.893427 185 186 179
3.84831512587697 2.45358926744976 -0.306009352207184 -0.1257035 0.5158969 0.8473778 177 180 172
3.84962723272474 2.45381171198406 -0.306898921728134 -0.121621 0.6132058 0.7805043 188 190 184
3.8500571610275 2.4516026446394 -0.304971545934677 -0.2132873 0.492358 0.8438555 189 190 185
3.8510282697025 2.45332247705975 -0.305631279945374 -0.1736891 0.5850493 0.7921802 175 175 166
3.8484263183418 2.44860774965801 -0.304941892623901 -0.2921306 0.2318227 0.9278566 180 181 170
3.85267395394475 2.45354480238476 -0.305342197418213 -0.1161519 0.6503115 0.7507355 182 183 178
3.84958273785741 2.45443446131268 -0.306409657001495 -0.0985771 0.5888798 0.8021865 177 178 170
3.85354126113088 2.45652491541424 -0.308678030967712 -0.07592415 0.5593743 0.8254308 175 177 170
3.85394156592519 2.45600599737682 -0.308173954486847 -0.109336 0.5930522 0.7977059 181 183 176
3.85469768064649 2.45954937429943 -0.309567600488663 -0.06760707 0.4102186 0.9094778 178 179 172
3.8568548919502 2.45777029486218 -0.308344453573227 -0.1997671 0.5584788 0.8051053 181 182 175
3.85309649127156 2.44980866404095 -0.302673518657684 -0.2010786 0.4910675 0.8475966 179 179 173
3.85225141661794 2.45238847227612 -0.30454158782959 -0.2098092 0.5388708 0.8158421 178 179 173
3.85487560051114 2.45303339453259 -0.304385900497437 -0.1919099 0.6346186 0.7486186 177 178 170
3.85441971438558 2.45173234434643 -0.303140550851822 -0.2053371 0.505855 0.837823 179 181 174
3.8561654748264 2.45305556746044 -0.30454158782959 -0.2072348 0.633471 0.7454987 183 184 180
3.85714397447736 2.45305556746044 -0.304897427558899 -0.2143115 0.6366481 0.7407764 178 177 169
3.85874519365461 2.4537450739912 -0.303318440914154 -0.2142649 0.5506766 0.8067501 176 177 170
3.86190310733945 2.45310003252545 -0.303429633378983 -0.1758772 0.3389691 0.9242116 184 184 175
3.85238484161527 2.45474571676769 -0.305786967277527 -0.0964276 0.6652774 0.740343 176 179 169
3.85458651798398 2.45516819448986 -0.306031584739685 -0.1645075 0.665071 0.7284352 177 181 173
3.85877484696538 2.45499784441509 -0.305134654045105 -0.2790256 0.6229497 0.7308066 183 184 178
3.86110249775083 2.45692522020855 -0.305875927209854 -0.3573278 0.5847052 0.7283108 177 177 166
3.86345983164937 2.45932692976513 -0.306632041931152 -0.3480779 0.6359535 0.6887706 184 185 180
3.8602574230972 2.45563525648632 -0.30454158782959 -0.3024079 0.58292 0.7541576 185 186 180
3.84233284609945 2.46476811857739 -0.311065018177032 0.1039366 0.2060154 0.9730133 179 181 173
3.8451349498573 2.46555382700482 -0.311168789863586 0.05958809 0.1719603 0.9833 187 188 182
3.84295553582341 2.46226245852032 -0.310101330280304 0.08490045 0.2667259 0.9600256 182 183 177
3.84264419096143 2.46270722837963 -0.309982717037201 0.1047875 0.2362776 0.9660189 185 185 180
3.8458465995136 2.45986074896374 -0.309434145689011 0.02414283 0.3165113 0.9482815 179 181 174
3.84168789404065 2.4647976824812 -0.310368180274963 0.09266879 0.1892098 0.9775541 181 183 176
3.84820393341214 2.46417505236187 -0.311702519655228 0.009618976 0.2262266 0.9740272 177 179 171
3.85285631435544 2.46520692797222 -0.310990899801254 0.01459438 0.197542 0.9801857 187 187 182
3.84876731651456 2.46319658251324 -0.31047198176384 0.02514585 0.2563127 0.9662668 184 185 179
3.84931588786275 2.46439749689617 -0.310546100139618 0.02341993 0.2229964 0.9745379 179 180 172
3.84162119644315 2.46657688112774 -0.311435669660568 0.08277992 0.1662344 0.9826055 172 175 168
3.84055373685987 2.47131378145733 -0.311435639858246 0.05864928 0.2053745 0.9769245 180 182 176
3.84229726212651 2.47150499315777 -0.311453461647034 0.04540566 0.2030806 0.9781087 182 185 178
3.84457895773084 2.46886748762646 -0.311235517263412 0.07524922 0.1180113 0.990157 175 178 171
3.84566867964894 2.46995717974224 -0.311747014522552 0.07107855 0.1202491 0.9901959 183 184 176
3.84780362861783 2.46671027632275 -0.311724781990051 0.02714696 0.1734203 0.9844737 175 178 170
3.85007200258405 2.4669104287199 -0.311457902193069 0.02499985 0.1726128 0.9846724 182 183 176
3.85235518830449 2.46690303774395 -0.311035364866257 0.0417756 0.1978874 0.9793342 189 188 183
3.84789258855016 2.47071332426586 -0.311613589525223 0.07912064 0.1810443 0.9802871 181 183 172
3.85072434561879 2.4715879628233 -0.312414169311523 0.1049892 0.2546127 0.961327 188 188 184
3.85294083374173 2.46377474756756 -0.310901939868927 0.02691212 0.2232497 0.9743897 183 183 175
3.85612097995908 2.46408612223187 -0.311613589525223 0.009654469 0.2421167 0.9701991 183 185 180
3.8558096350971 2.46484226675549 -0.311480134725571 0.02539657 0.2256828 0.9738697 187 189 183
3.85234037655027 2.46083921881237 -0.310190290212631 0.0545073 0.3143592 0.947738 179 180 173
3.85727739947469 2.45986074896374 -0.309389680624008 -0.1455373 0.4341688 0.8889974 175 176 169
3.85647681968839 2.461684293466 -0.310279250144958 -0.06705351 0.32456 0.9434853 178 181 174
3.85265172141225 2.46444196196118 -0.310590595006943 0.02714862 0.2165183 0.975901 186 186 181
3.86134714501531 2.46508688421765 -0.311302244663239 -0.04176835 0.3122188 0.9490916 187 188 182
3.85852277892263 2.46103925200024 -0.310056865215302 -0.1419803 0.4576944 0.8777001 186 187 180
3.86047980802686 2.46092814894238 -0.30931556224823 -0.2048015 0.5194755 0.8295792 189 190 183
3.86185864227445 2.461817688661 -0.309678792953491 -0.2490268 0.5475988 0.7988248 190 192 186
3.86220333593518 2.4635301301054 -0.310290366411209 -0.1471639 0.4201629 0.8954362 189 189 183
3.85443083065183 2.46722919436016 -0.311331897974014 0.06109582 0.2273223 0.9719012 189 190 184
3.85641751306684 2.46702165098705 -0.311569094657898 0.03749144 0.2387736 0.9703513 190 190 187
3.85638151186139 2.46905488462963 -0.311931282281876 0.07793095 0.2316512 0.9696724 183 184 179
3.85607651489408 2.46995717974224 -0.312814474105835 0.08317548 0.2576593 0.9626492 186 187 181
3.85465321558149 2.47104687185803 -0.312592089176178 0.07582691 0.2854459 0.9553905 185 185 180
3.86030191796453 2.4668659636549 -0.311835944652557 0.009962015 0.287995 0.9575801 186 185 181
3.86328194158704 2.46715504618206 -0.311991631984711 -0.1320437 0.2991358 0.9450303 189 189 183
3.86061323302419 2.46903795691052 -0.312221437692642 0.005709929 0.2343507 0.9721354 189 189 186
3.85896757858426 2.46986824961224 -0.312147319316864 0.02326707 0.2494394 0.9681109 188 179 181
3.86194760220678 2.47000164480724 -0.312814474105835 -0.03597175 0.2127516 0.9764439 190 191 186
3.8601907254997 2.44885248632946 -0.301183521747589 0.04524438 0.1546114 0.9869388 196 196 194
3.85894534605176 2.45117635221996 -0.30170613527298 -0.1397471 0.3818935 0.9135799 193 193 191
3.8645421327892 2.44894141645947 -0.301657944917679 0.1370902 -0.03782265 0.9898362 181 183 177
3.8408057751003 2.47542793245831 -0.312384516000748 -0.1278397 0.5763903 0.8071129 183 184 179
3.84428987520368 2.47333747835674 -0.311880439519882 0.06148127 0.2955776 0.9533383 185 186 179
3.84601560848386 2.47307068796673 -0.312191784381866 0.1013889 0.2327606 0.9672346 183 184 177
3.84437883513601 2.47160286398449 -0.311806321144104 0.07595594 0.1764938 0.9813667 182 183 176
3.84317792075307 2.47591716738262 -0.312592089176178 -0.06322412 0.5722106 0.817666 171 171 161
3.84380061047704 2.47676224203625 -0.312547624111176 0.02725918 0.6052636 0.7955582 191 191 186
3.85111722963483 2.4733151862196 -0.312836706638336 0.1360708 0.3353608 0.9322113 184 185 180
3.85228106992871 2.47286314459362 -0.312799662351608 0.10205 0.3110525 0.9448979 187 188 183
3.85391933339269 2.47324854822674 -0.31328147649765 0.07961171 0.288892 0.9540458 185 186 181
3.85478664057882 2.47213656397381 -0.313303738832474 0.06537928 0.2908568 0.9545302 185 184 178
3.85798904913099 2.47186965437451 -0.312836706638336 0.01724032 0.2631977 0.9645879 186 186 180
3.85674366968305 2.47284824343243 -0.313392698764801 0.03564706 0.2531206 0.9667777 184 184 176
3.86239237206609 2.47398240061321 -0.313237011432648 -0.100466 0.1668199 0.9808556 181 181 172
3.84824839847715 2.48832649679699 -0.312592089176178 -0.5464045 -0.4596884 0.700092 177 178 167
3.84986442940862 2.49052078218975 -0.311005711555481 -0.2970247 -0.6430393 0.7058873 178 179 165
3.84669167416723 2.49313015432873 -0.309345215559006 -0.5650233 -0.6448272 0.5147296 191 192 191
3.84978289025457 2.49250740500012 -0.309100568294525 -0.3408628 -0.7190676 0.6056025 176 180 168
3.8525182666126 2.48974985571423 -0.312280744314194 0.08682223 -0.7417812 0.6649982 186 186 175
3.85265172141225 2.49032802076855 -0.311613589525223 0.06491956 -0.7323416 0.6778357 182 181 168
3.85307425873906 2.49348599405804 -0.307543873786926 -0.0803147 -0.7559254 0.6497126 178 180 172
3.85794458406598 2.49135107489147 -0.313303738832474 0.02233592 -0.5360399 0.8438971 158 160 146
3.85354126113088 2.49388629885235 -0.307521611452103 -0.0891035 -0.7406959 0.6659055 190 191 188
3.8448013426605 2.49566537828961 -0.311902701854706 -0.8980433 -0.4160412 0.1429263 190 191 187
3.84437883513601 2.50171441526928 -0.311747014522552 -0.9747255 0.209048 0.07879835 189 190 187
3.84455675500066 2.50380486937084 -0.310724020004272 -0.8588722 0.4509333 0.2428942 191 191 190
3.84391180294187 2.50158090086498 -0.309389680624008 -0.8945215 0.2348099 0.3803886 190 191 188
3.84446779506833 2.49980182142773 -0.308144301176071 -0.865849 0.04213499 0.498528 203 202 201
3.84562421458394 2.50024659128704 -0.308055341243744 -0.8057618 0.1166913 0.5806299 206 205 205
3.84531286972196 2.50482780428448 -0.30965656042099 -0.6192532 0.5875133 0.5209162 196 196 195
3.84566867964894 2.50393826456585 -0.308678030967712 -0.5716606 0.5370187 0.6203346 203 203 201
3.84722540395887 2.50487226934948 -0.308589071035385 -0.4229994 0.5802563 0.6959699 199 200 197
3.84598002451093 2.50291532965222 -0.307655036449432 -0.5336781 0.4677835 0.7045327 193 193 189
3.84540182965429 2.49780029745617 -0.307165801525116 -0.7982569 -0.1693922 0.5780071 194 196 193
3.84540182965429 2.4988678166441 -0.306053847074509 -0.7524735 0.02417457 0.6581787 193 194 190
3.84709197896154 2.49499816389599 -0.306676536798477 -0.5234166 -0.4528817 0.7217571 177 179 176
3.84749228375585 2.49824506731548 -0.304897427558899 -0.493242 -0.0903375 0.8651887 171 171 167
3.84535733478696 2.50247044058361 -0.307566076517105 -0.610522 0.4102123 0.6774871 203 202 201
3.84651375430257 2.50092858763256 -0.305683195590973 -0.5037631 0.3053698 0.8080668 191 193 188
3.84762570875318 2.50151414366284 -0.307010114192963 -0.4364664 0.4981955 0.7491984 197 199 197
3.84873766320379 2.50238151045361 -0.306387424468994 -0.424264 0.5134315 0.7459143 188 190 186
3.84691405909688 2.50024659128704 -0.305875927209854 -0.6170641 0.1974349 0.7617424 202 203 202
3.85093191879422 2.50518364401379 -0.307551264762878 -0.4641893 0.5653859 0.6818116 191 193 190
3.85019431131513 2.50339335890331 -0.306009352207184 -0.4115498 0.5599906 0.7190531 186 187 184
3.85255003588826 2.5053170392088 -0.30583781003952 -0.5372294 0.5212154 0.6631132 191 192 190
3.85269618647725 2.50166995020428 -0.303711354732513 -0.4784139 0.3894531 0.7870492 194 196 192
3.85242930668027 2.50336009951153 -0.304430395364761 -0.4927454 0.4544222 0.7420933 189 190 186
3.8535857559982 2.49793381186047 -0.302940398454666 -0.5290695 -0.1574709 0.8338395 197 197 196
3.85314095633657 2.49828953238049 -0.303207248449326 -0.5285681 -0.1181596 0.8406272 198 198 196
3.85254052894742 2.50353795977154 -0.304808467626572 -0.4962333 0.4546478 0.7396268 191 192 189
3.85486448424489 2.50499457808056 -0.304196894168854 -0.4776337 0.4823833 0.7342836 198 200 199
3.85456425564916 2.50309318991223 -0.302718013525009 -0.4669659 0.3648908 0.8054797 197 198 196
3.85425291078717 2.50322658510723 -0.302451133728027 -0.4669659 0.3648908 0.8054797 185 187 177
3.85554278510244 2.50407165976086 -0.303607553243637 -0.3922635 0.4702965 0.7905381 189 191 191
3.85666108744771 2.50282628031292 -0.301453560590744 -0.3332387 0.4274006 0.840405 199 198 196
3.85827211158902 2.50346524210491 -0.301589876413345 -0.2181985 0.4797342 0.8498497 189 190 186
3.84620240944059 2.50607318373242 -0.31183597445488 -0.7267454 0.6763823 0.1197838 188 190 185
3.8458465995136 2.50687379332104 -0.310501635074615 -0.5237003 0.73689 0.4274706 179 177 173
3.84953827279241 2.50780779810467 -0.311124324798584 -0.4840742 0.7917747 0.3725118 191 193 190
3.84922692793042 2.50898653955975 -0.311591327190399 -0.575557 0.7738615 0.2643339 189 191 189
3.85118395703466 2.5089197823576 -0.31183597445488 -0.6607063 0.7040456 0.2603593 184 186 184
3.84835959094197 2.50593966932812 -0.309345185756683 -0.3987028 0.6650717 0.6314394 183 185 180
3.84993857758672 2.50593978853741 -0.309612065553665 -0.4111022 0.6769276 0.610544 192 192 187
3.85029438751371 2.50700730772534 -0.309523105621338 -0.4686691 0.6623598 0.5844901 189 190 186
3.85140634196431 2.50602871866741 -0.306409657001495 -0.5198277 0.5334731 0.6672224 183 185 185
3.85305199640424 2.5088753172926 -0.308077573776245 -0.6339439 0.4723249 0.6123922 191 194 193
3.8541972996536 2.51124376745739 -0.308099806308746 -0.5606337 0.5063843 0.655183 203 204 203
3.85625443475873 2.51652545424023 -0.311978280544281 -0.4459213 0.8191184 0.3608314 182 184 179
3.8568548919502 2.51609189005413 -0.31095752120018 -0.3177238 0.8040234 0.5025913 187 188 184
3.85450867431791 2.51364559622326 -0.309489756822586 -0.6074169 0.588975 0.5330603 194 194 190
3.85610616820485 2.51276714296856 -0.307973802089691 -0.2819608 0.5896055 0.7568775 190 191 187
3.8550535203758 2.51447958441296 -0.310257017612457 -0.5347456 0.7106363 0.4572124 202 203 202
3.85545382517011 2.51394576521435 -0.309256255626678 -0.4845415 0.6687608 0.5638958 201 202 201
3.86228117960126 2.51639205904522 -0.311524629592896 0.07857763 0.868198 0.489957 184 185 180
3.8600943447891 2.51399023027935 -0.308870762586594 -0.003132197 0.678265 0.7348107 188 189 185
3.86212549226911 2.51320070715466 -0.308199882507324 0.03195355 0.6709074 0.7408523 177 179 172
3.85414171832235 2.50794119329968 -0.306231737136841 -0.5039781 0.4621986 0.7296427 193 195 196
3.85483113544614 2.5088753172926 -0.307210266590118 -0.4965267 0.4345739 0.7514032 196 198 197
3.85700166838796 2.510672158914 -0.306400775909424 -0.2062441 0.5408291 0.8154553 182 183 178
3.85515729206235 2.5090087124876 -0.3057721555233 -0.412454 0.4765187 0.7764094 197 200 196
3.85653398054273 2.50910407991924 -0.305596351623535 -0.3108163 0.50431 0.8056455 184 185 182
3.85828135030896 2.50937098951855 -0.305736154317856 -0.1408774 0.5482533 0.8243615 180 183 177
3.85647681968839 2.50755209417858 -0.304652810096741 -0.3368447 0.5329596 0.7762021 199 199 198
3.8582826020065 2.50578851194897 -0.302922606468201 -0.1794845 0.5524255 0.8140095 192 191 187
3.85849500315816 2.51163846941509 -0.307082384824753 -0.133043 0.5586157 0.8186867 181 183 179
3.85883412378461 2.51038760633984 -0.306231766939163 -0.1213149 0.5515912 0.8252453 173 176 167
3.86046869176061 2.50948686094799 -0.305987119674683 -0.06465978 0.5632164 0.8237757 185 186 181
3.86219221966893 2.50947577448406 -0.305553466081619 -0.02209588 0.5658016 0.8242453 181 183 178
3.86301506179006 2.51152176352062 -0.30632072687149 0.0125984 0.6144631 0.788845 174 177 170
3.85886082666547 2.50737196894207 -0.304265826940536 -0.1697005 0.5643923 0.8078757 180 182 176
3.86071333902509 2.50712961645641 -0.303941130638123 -0.04810349 0.5790815 0.8138493 180 182 176
3.85850054639013 2.50516147108593 -0.302028596401215 -0.1832415 0.5197697 0.8344231 180 181 173
3.86037305610807 2.50572628469982 -0.302869230508804 -0.1016778 0.5761805 0.8109733 183 184 178
3.86248133199842 2.50694794149914 -0.303488969802856 -0.01650436 0.5792218 0.8150029 184 186 181
3.86176968234212 2.5056728789381 -0.302895903587341 -0.03087315 0.5990171 0.8001409 191 192 186
3.86293721812398 2.5049724051527 -0.301817327737808 0.002468062 0.5833072 0.8122479 188 191 187
3.85478667038114 2.49980182142773 -0.301672756671906 -0.4957936 0.1747364 0.8506796 204 204 205
3.85804835575254 2.49750382395306 -0.299367338418961 -0.3882812 0.003461 0.9215345 194 194 193
3.85732189434201 2.4989122817091 -0.300627529621124 -0.4140285 0.1333272 0.9004467 200 201 197
3.85723293440969 2.49846751184979 -0.300049334764481 -0.3914847 0.01879455 0.9199927 196 197 193
3.86136937754781 2.49499816389599 -0.300938874483109 -0.1174514 -0.06884205 0.9906896 174 177 173
3.86088011282117 2.49526507349529 -0.299604564905167 -0.1520429 -0.01678191 0.9882314 160 166 157
3.86205137389333 2.49587292166271 -0.297958880662918 -0.1344114 -0.1379138 0.9812815 173 176 168
3.85896757858426 2.49944598169842 -0.299174606800079 -0.2797135 0.2051276 0.9379142 191 191 187
3.86116925495298 2.49884552450695 -0.298403650522232 -0.1726083 0.153015 0.9730328 193 194 192
3.85932338851125 2.5022925803236 -0.300760984420776 -0.2143805 0.4506791 0.8665618 184 188 184
3.86055765169294 2.5032154986433 -0.301283597946167 -0.12836 0.5098847 0.8506123 185 188 185
3.86220333593518 2.50133628340283 -0.299737989902496 -0.06390859 0.4937216 0.8672685 188 190 188
3.8620587946716 2.50364918203869 -0.301250219345093 -0.01307812 0.5441877 0.8388616 187 189 186
3.86272594946058 2.50260395498791 -0.300516366958618 -0.006554646 0.5217967 0.8530447 194 195 193
3.86455509679944 2.51703710051098 -0.313631743192673 0.1271829 0.9425301 0.3089685 178 180 173
3.93241534250409 2.49477583857098 -0.353919446468353 0.5544346 0.828856 0.07483321 168 168 164
3.87698111551435 2.51132161112347 -0.304852932691574 -0.0495761 0.2761765 0.9598275 201 200 200
3.88894564526708 2.41858524771252 -0.363786101341248 0.3130138 -0.9470255 -0.07186823 177 176 165
3.91378653662832 2.50645131559887 -0.328559637069702 0.2307867 0.9178028 0.323072 180 183 174
3.90887174623639 2.48169929476299 -0.305457830429077 0.5934594 0.3411198 0.7290015 192 195 191
3.88085067885549 2.51665896864453 -0.306276232004166 0.1022768 0.5252696 0.844767 191 192 188
3.93431306498677 2.4873647162489 -0.341519385576248 0.5186644 0.7495524 -0.4112887 164 169 158
3.88238517063291 2.47658438177624 -0.300494134426117 0.01714845 0.1513387 0.9883332 181 181 174
3.88267428296239 2.4178735682539 -0.359442114830017 0.4123488 -0.9061049 0.09456365 173 173 163
3.92798239606054 2.44544989557781 -0.354282677173615 0.7924034 -0.5272995 0.3066792 173 174 161
3.90691471713216 2.50678486319103 -0.345038712024689 0.09459765 0.9951918 0.02538732 167 170 161
3.86541686075361 2.50629562826672 -0.349330812692642 -0.7163182 0.6449494 -0.2663238 169 174 167
3.8642826737705 2.4332851836256 -0.307010114192963 0.2413108 -0.1759026 0.9543728 189 189 186
3.86559478061826 2.51688129396954 -0.315927922725677 0.127054 0.9706159 0.2043575 171 174 166
3.87272900956304 2.51480860205212 -0.313428282737732 -0.08793345 0.9778423 0.1899792 179 181 176
3.87271121757657 2.43957883806744 -0.307566076517105 0.3135829 -0.2997226 0.9010173 186 186 182
3.86759627478749 2.40942282171765 -0.325802028179169 0.5373368 -0.8284945 0.1576895 175 176 165
3.91788963096769 2.50847501249828 -0.346339672803879 0.0643446 0.9347256 0.3494964 176 178 171
3.90827128904493 2.43922299833813 -0.310390412807465 -0.2686249 -0.3187953 0.9089611 183 183 178
3.93395725505979 2.45194358320751 -0.355557709932327 0.5791075 -0.7876694 0.2102652 167 167 151
3.86486089842946 2.432751364427 -0.306476384401321 0.2509214 -0.160043 0.9546856 196 196 192
3.91247445958287 2.45398957224407 -0.30529773235321 -0.4780883 0.04965014 0.8769073 183 182 170
3.9292425872627 2.461817688661 -0.371547520160675 0.6862382 0.0743202 -0.72357 149 150 132
3.89484638589055 2.51356775255718 -0.315016120672226 0.7906637 0.4876766 0.3701655 192 194 191
3.86577267068059 2.51483530493298 -0.340168356895447 -0.5563746 0.7862071 -0.2689345 171 175 170
3.87551335113675 2.44883019419232 -0.305964887142181 0.2975623 -0.3184476 0.9000266 185 178 177
3.942808365995 2.4717362591795 -0.363964021205902 0.6432921 -0.2148138 -0.7348675 167 165 157
3.92839751260907 2.46279627771893 -0.3141710460186 0.3628837 0.2276845 0.9035902 183 185 180
3.95124433057935 2.47513145895519 -0.336209833621979 0.9650673 -0.04089029 -0.2587918 179 181 176
3.90086570995481 2.42490107508221 -0.369034498929977 0.4344697 -0.8956122 0.09547155 171 169 155
3.8768476607147 2.46639890165844 -0.301517099142075 -0.2223343 -0.02630689 0.9746155 189 188 182
3.91274130957753 2.43587238283672 -0.311895281076431 0.01988482 -0.5083975 0.8608929 182 184 176
3.86833462732465 2.50993389578381 -0.356011390686035 -0.7866467 0.5557333 0.268975 182 184 178
3.90904963629873 2.42872614355602 -0.33892297744751 0.1832473 -0.9354944 0.3021105 173 172 156
3.86795208471448 2.41422647924938 -0.362407296895981 0.07477628 -0.9266618 -0.3683833 167 168 152
3.90854260938794 2.441624827104 -0.311515718698502 -0.3627784 -0.1307303 0.92266 181 181 169
3.88261867182882 2.51552469225445 -0.307421535253525 0.2896394 0.4186551 0.8607188 201 202 200
3.90046543496282 2.50865299196758 -0.353769689798355 -0.02637812 0.9653978 0.2594441 174 176 165
3.86888614910276 2.41026789637127 -0.34301495552063 0.3207367 -0.9299145 -0.1799638 175 175 166
3.93851623552472 2.46395272703686 -0.361717879772186 0.6999997 -0.3215947 -0.637634 164 165 151
3.94176313894422 2.4635301301054 -0.322532892227173 0.7269939 -0.3228582 0.6060054 187 188 183
3.93578085916669 2.49281877966442 -0.354801595211029 0.6332112 0.7620935 -0.1351187 179 181 174
3.94223014133603 2.48763710947552 -0.349486470222473 0.4950719 0.8397157 0.2231177 183 184 178
3.89619556682737 2.46911210508862 -0.301939636468887 0.03151711 -0.09954768 0.9945335 216 173 204
3.87844887989194 2.47827453108349 -0.302139788866043 -0.6036699 -0.04941865 0.7957013 178 179 171
3.91790074723394 2.43375224562206 -0.330828011035919 0.8927351 -0.4225311 0.1564978 181 181 172
3.89664030688436 2.43109840841808 -0.31767737865448 -0.1686632 -0.4877487 0.856536 187 187 180
3.92457244413526 2.48868245573559 -0.317195534706116 0.2734132 -0.103361 0.9563272 189 191 184
3.86555028575093 2.50696272345104 -0.348663628101349 -0.7395282 0.5676176 -0.3618126 170 174 166
3.94359413402707 2.46103937120953 -0.341398924589157 0.9048259 -0.4239263 -0.03970641 169 171 159
3.91870135682256 2.44122452230969 -0.308277726173401 0.1889098 -0.7285974 0.658376 191 192 189
3.92847759144933 2.49770242662945 -0.351510226726532 0.794017 0.6017714 0.08607041 174 175 167
3.8878781856838 2.5224410960249 -0.316550612449646 0.1571161 0.921206 0.3559411 125 135 129
3.87311152237088 2.51843804808178 -0.363029986619949 -0.4293504 0.8284506 -0.3596219 165 168 161
3.88494265692861 2.41742879839459 -0.319693714380264 0.5251462 -0.7745426 0.3525695 178 178 171
3.93902773278386 2.48743695707836 -0.333852499723434 0.5350928 0.819652 -0.204564 170 173 166
3.90845659988553 2.49244815798321 -0.307521611452103 0.4855767 0.3488036 0.801593 191 191 185
3.86979053037793 2.42860753031292 -0.307729184627533 0.4742716 -0.02617376 0.8799894 176 179 176
3.86630643027456 2.48103219957867 -0.31285896897316 -0.3159812 -0.06066308 0.9468241 173 170 160
3.87197733538778 2.42739195318737 -0.30956757068634 0.6941532 -0.1799936 0.6969603 175 179 174
3.90050098913343 2.51211328001537 -0.361793518066406 0.1334336 0.9744817 0.1805017 183 184 178
3.88813394921453 2.44292575808087 -0.311135441064835 0.1812828 -0.451235 0.8737983 192 177 182
3.90066555755765 2.42603535147228 -0.345616906881332 0.2406821 -0.9540997 0.1782301 171 172 160
3.88632146137387 2.41956371756115 -0.352711111307144 0.5609482 -0.8263937 -0.04909865 174 173 162
3.91830105202825 2.47271484823742 -0.310590595006943 0.5293089 0.2866959 0.7985221 183 184 180
3.91391996162564 2.51043207140484 -0.362118184566498 0.4825114 0.8419873 0.2413299 171 173 166
3.86443836110265 2.41231388540783 -0.349597662687302 0.3510001 -0.9043347 -0.242853 172 174 159
3.89770779626996 2.42623538466015 -0.342570185661316 0.3844841 -0.9135258 0.1328254 175 173 161
3.94512120502622 2.46728844137707 -0.331317275762558 0.8056058 -0.517559 0.2883261 183 184 178
3.92310464995534 2.44660634489575 -0.32735875248909 0.5808529 -0.810326 -0.07734178 170 173 163
3.9174114825073 2.48009807558575 -0.312681049108505 0.5671309 0.2690125 0.7784567 184 185 182
3.9343797923866 2.49264091940441 -0.350109159946442 0.4462307 0.7757418 0.4462095 173 175 165
3.86900473254354 2.46714026423016 -0.310160636901855 -0.4423012 0.3562647 0.8230706 186 186 179
3.91794521229894 2.48823756666699 -0.314326733350754 0.3483639 -0.04273521 0.9363847 179 182 176
3.90366781371267 2.51238901110211 -0.366410315036774 0.008114756 0.9872882 0.1587326 184 186 183
3.86497209089429 2.48134345503369 -0.313303738832474 -0.2631331 -0.0292569 0.9643158 176 174 163
3.86421594637067 2.40550870390453 -0.322910964488983 0.8115523 -0.5701591 0.127677 173 174 162
3.8924771906677 2.50907988043347 -0.347391575574875 0.3139494 0.9029324 0.2935112 172 174 164
3.92918331044347 2.49330801458874 -0.345253676176071 0.928357 0.3615356 0.08628613 165 170 162
3.9336459101978 2.49659938307324 -0.330427706241608 0.8611458 0.5083523 -0.002422434 179 182 179
3.9318223060909 2.47369331808605 -0.316684067249298 0.1336596 0.1839986 0.9737965 178 180 172
3.87400109189183 2.41178006620922 -0.338878512382507 0.4543785 -0.8772841 -0.1546378 163 166 149
3.89435527341993 2.51101583929577 -0.331917732954025 0.4128662 0.8898821 0.1940395 171 174 164
3.87186614292295 2.41384834738293 -0.360227882862091 0.1937859 -0.9459825 -0.2599308 171 172 161
3.88647467511327 2.51304144354382 -0.34392923116684 0.5745242 0.8131984 0.09289891 170 172 164
3.95098117607267 2.47351545782604 -0.34812992811203 0.9990941 0.01021771 0.04130978 180 180 176
3.87837103622586 2.52192956896343 -0.327080756425858 -0.06320017 0.9958379 -0.06567049 180 183 177
3.92255610840947 2.47743315191784 -0.316209614276886 0.402353 0.381773 0.8320826 178 182 175
3.89780563729436 2.50758547277966 -0.314335614442825 0.7166591 0.2424837 0.6539124 182 184 177
3.86982015388639 2.43713254423657 -0.307188034057617 0.2988836 -0.2182892 0.9289879 194 194 191
3.89099163430364 2.48281127901592 -0.302629053592682 0.1722223 0.02175269 0.9848179 186 188 184
3.89910886305005 2.47542793245831 -0.303296208381653 0.1312837 0.08266343 0.9878924 237 181 224
3.92521736639173 2.50393826456585 -0.331206083297729 0.5804737 0.7929738 0.1850484 177 179 171
3.87473497408063 2.4131812521986 -0.327158570289612 0.4764876 -0.8763626 0.0703427 183 184 178
3.91180727499158 2.5088753172926 -0.335097879171371 0.3847227 0.9100963 -0.1539908 188 190 187
3.88816410916478 2.49514431448498 -0.305259585380554 0.107021 0.2776501 0.9547026 198 199 198
3.91856790202291 2.45390064211407 -0.30325174331665 0.3719321 0.07349209 0.9253461 194 197 193
3.94160745161206 2.46108383627453 -0.353912025690079 0.7923079 -0.5133961 -0.3296554 164 166 149
3.90424603837163 2.50729627104321 -0.345083177089691 0.09660158 0.9952825 -0.008988257 172 174 167
3.89865852015645 2.51192755194225 -0.359366118907928 0.2209218 0.9428836 0.2493275 167 170 158
3.92691493647725 2.49403447599926 -0.31686195731163 0.4551829 0.1482548 0.8779687 192 192 187
3.883830702478 2.42650229425945 -0.316417187452316 0.494233 0.3733358 0.7850822 184 185 177
3.93255174773366 2.49307674856701 -0.338113486766815 0.7727685 0.4670916 -0.4297141 173 175 168
3.86606178301007 2.43346304388561 -0.307832956314087 0.2102721 -0.1424081 0.9672154 190 189 186
3.93191126602323 2.4989567467741 -0.323978424072266 0.8316334 0.4928457 0.2559081 187 189 184
3.88538742678792 2.51625866385021 -0.330650091171265 0.6932132 0.7079722 -0.1350215 176 179 170
3.91434249895246 2.49529177637615 -0.312049448490143 0.416886 0.1606096 0.8946567 181 184 174
3.87492031472356 2.52076572866955 -0.324037730693817 -0.3967921 0.8572652 0.3281042 194 195 191
3.92290452736051 2.43942303152599 -0.360405802726746 0.5913204 -0.7995473 0.1051874 166 168 155
3.88778922575147 2.41880757303753 -0.360450267791748 0.3308873 -0.8936279 0.3032204 181 182 175
3.88772252815397 2.51086563559094 -0.343326300382614 0.5050542 0.8550193 -0.1177377 170 172 163
3.88393447416455 2.51975757570782 -0.315290421247482 -0.3845488 0.9212143 0.05904612 183 184 181
3.90427074449689 2.48347348661938 -0.303790420293808 0.2697644 0.05910429 0.9611108 203 203 201
3.90611410754354 2.47707361670056 -0.303474128246307 0.09218099 0.1691809 0.9812648 198 198 197
3.89170328395993 2.51443500013867 -0.354401290416718 0.5237307 0.7794502 0.3437493 176 178 170
3.89463881271512 2.42316646070995 -0.346884518861771 0.342451 -0.9374822 0.06208482 180 180 168
3.94529912489087 2.46275181265392 -0.343459725379944 0.8618546 -0.5059235 0.03532726 173 174 163
3.93533605950505 2.48499066324749 -0.366365820169449 0.7916797 0.3136254 -0.5242922 158 160 151
3.94783434885175 2.47688681574383 -0.345754772424698 0.7575321 0.6083612 0.2367316 179 183 179
3.93790466206701 2.46569842787304 -0.317807137966156 0.6658124 -0.3515808 0.6580917 185 185 179
3.87634358423383 2.50387901754894 -0.305134624242783 0.2657901 0.2206114 0.9384488 174 177 167
3.87693662064702 2.41289205046215 -0.336387753486633 0.5772702 -0.8159189 -0.03217828 170 172 159
3.9082787098232 2.50912732573071 -0.349412351846695 0.06018382 0.8907406 0.4505098 171 173 163
3.92955396192701 2.45203263254681 -0.311435669660568 0.7840409 -0.06605115 0.6171848 187 190 186
3.88836745041043 2.49811167212048 -0.30672100186348 0.184547 0.1671361 0.9685081 180 181 177
3.90639579909475 2.51075822802105 -0.353496909141541 -0.1269151 0.9708019 0.203559 173 174 167
3.95005825775296 2.47596163244763 -0.338122397661209 0.87859 0.2720207 -0.3925358 175 176 170
3.87186614292295 2.49357492418804 -0.300494104623795 0.275472 -0.1796664 0.9443702 206 207 207
3.91674432771833 2.50836390944042 -0.347685128450394 0.004725669 0.9521341 0.305644 171 172 168
3.90798217671544 2.43453056307354 -0.313214778900146 -0.2042375 -0.4386241 0.8751548 185 185 177
3.92873111980588 2.49763721914807 -0.353556215763092 0.7198573 0.6913666 0.06178679 169 171 162
3.91027278321416 2.49525613279858 -0.309465289115906 0.3493727 0.577952 0.7375026 181 183 177
3.93462440984876 2.45897120924511 -0.317595839500427 0.7788531 -0.2732111 0.5645738 186 187 182
3.91278580444486 2.44255883188763 -0.307588338851929 -0.3040645 -0.4525401 0.8383032 187 186 178
3.91309157627256 2.49301893206158 -0.311380058526993 0.6907268 0.07775313 0.7189235 185 187 183
3.92786378281743 2.44146913977184 -0.33789998292923 0.5216327 -0.6998916 0.4879047 172 174 164
3.87822649496228 2.41858524771252 -0.316728532314301 -0.06214967 -0.4337395 0.8988923 182 183 176
3.91297260540158 2.49670619459667 -0.311960518360138 0.3784327 0.3640839 0.851018 187 188 182
3.91140697019727 2.475116557794 -0.305520117282867 0.6382732 0.214867 0.7392155 181 185 183
3.88867879527242 2.49350077600994 -0.304675042629242 0.05409424 0.2789184 0.9587901 194 194 192
3.89446092265279 2.4317062565855 -0.317662566900253 -0.1597756 -0.4880699 0.8580557 192 191 187
3.86648432033689 2.51523560972729 -0.331272780895233 -0.4526145 0.8914818 0.0200081 183 183 178
3.89090267437131 2.42276615591564 -0.344082415103912 0.2737939 -0.9541208 0.1212037 176 176 164
3.89022440331609 2.51307291479626 -0.351415693759918 0.5285975 0.6850935 0.5012301 172 174 166
3.94367567318113 2.45885986776867 -0.338000059127808 0.8496698 -0.5236194 0.0623218 179 180 174
3.8963289918247 2.48481280298748 -0.30325174331665 0.1322125 -0.1460974 0.9803955 184 185 180
3.94805673378141 2.48241097422161 -0.352800071239471 0.8702239 0.4907308 -0.04351657 177 180 174
3.90944994109304 2.42596859427014 -0.327136337757111 0.4607913 -0.83197 -0.3090262 149 150 131
3.87050957101018 2.51683682890453 -0.359249353408813 -0.7824092 0.5685623 0.2541118 185 185 179
3.86866373437078 2.49833411665478 -0.298403650522232 0.3131206 0.2314105 0.9210889 174 177 173
3.877203500444 2.41705817671337 -0.317277103662491 0.1073494 -0.6003511 0.792499 182 183 175
3.94930214303167 2.4820700356535 -0.331613779067993 0.635696 0.7495974 -0.1843754 173 176 168
3.87171048539312 2.51145500631848 -0.306876689195633 -0.2205165 0.5765252 0.7867599 190 190 185
3.90030974763066 2.42672461958447 -0.319552898406982 -0.1943421 -0.4332663 0.8800634 192 192 187
3.89804137366445 2.51034302206555 -0.321999162435532 0.4673152 0.8830917 -0.04201741 173 173 164
3.87030944841535 2.51685912104168 -0.339634627103806 -0.4865322 0.8708486 -0.07006536 185 186 183
3.92430556433828 2.43513102026501 -0.345461219549179 0.6520104 -0.7541127 0.07871784 165 166 150
3.91822878139646 2.50554508657971 -0.363341331481934 0.6951899 0.7023967 -0.1528068 164 168 158
3.936225629026 2.49252969713726 -0.32313334941864 0.5036802 0.8614511 0.06487025 181 184 180
3.87506855147512 2.42187661619702 -0.368189424276352 0.2384498 -0.7360819 -0.6335023 164 166 147
3.87111002820165 2.51477605791607 -0.310056835412979 -0.133915 0.8656541 0.4824001 181 182 177
3.93858293312223 2.48644370527783 -0.339575320482254 0.2427047 0.9325566 -0.2672686 168 170 163
3.90807113664777 2.4482074448637 -0.308500111103058 -0.6813593 -0.2013206 0.7037184 187 186 181
3.86405286806256 2.41281790228405 -0.35785573720932 0.2332023 -0.9389473 -0.2529717 165 165 148
3.87419012802274 2.42570168467083 -0.316027998924255 -0.7262638 -0.2576856 0.6372904 170 172 165
3.94838292019994 2.47361916990795 -0.355409443378448 0.9089142 -0.1061201 -0.4032536 170 173 162
3.8687304617706 2.41658372374096 -0.31597238779068 0.08469769 -0.03816763 0.9956754 187 188 181
3.90813044326932 2.44697696657696 -0.309686213731766 -0.6204594 -0.1597445 0.7677968 181 181 172
3.94516567009122 2.4686673352293 -0.327225297689438 0.868386 -0.4477375 0.2131594 179 182 173
3.9173670174423 2.43246228189984 -0.315082848072052 0.6971273 -0.4717843 0.5398454 188 190 184
3.946255362207 2.48252219648876 -0.355602204799652 0.7089794 0.6146539 -0.3457581 174 176 169
3.91754493730695 2.47578377218762 -0.310590595006943 0.571833 0.3056262 0.7613145 183 184 180
3.86826345937879 2.41409296484509 -0.315883457660675 0.2734496 -0.4417379 0.8544548 185 187 179
3.88596565144689 2.4211649367384 -0.357247859239578 0.4790269 -0.8477646 0.2276586 171 172 159
3.89425334947736 2.4452720353178 -0.309804797172546 0.1522584 -0.1623586 0.9749139 195 191 190
3.88686410205991 2.49331695528546 -0.304230242967606 0.1657341 0.1962492 0.9664463 200 200 198
3.93306768553884 2.48583573790112 -0.345772564411163 0.471156 0.8171414 0.3321024 167 171 159
3.89791238921315 2.50553054304638 -0.314219981431961 0.6675913 0.220451 0.7111422 187 188 183
3.89813775437505 2.42611689062634 -0.320108830928802 -0.1562568 -0.4239196 0.8921188 188 187 181
3.87162152546079 2.45854861231365 -0.30147260427475 -0.01708316 -0.007169627 0.9998283 182 180 175
3.88258532303006 2.41836280317822 -0.362184911966324 0.1046684 -0.9696465 -0.2209758 188 187 179
3.92902020233304 2.49529475660839 -0.343385607004166 0.9491516 0.2511147 -0.1898755 165 170 161
3.92479482906491 2.50109166594067 -0.35867115855217 0.6663202 0.7102231 -0.2271574 173 175 167
3.88058379905851 2.45141882391491 -0.305742502212524 0.2434266 -0.2985654 0.922823 195 187 190
3.88952386992604 2.42703599424877 -0.320420205593109 0.2666052 -0.01186763 0.9637327 189 189 183
3.88025025146634 2.41705078573742 -0.341280311346054 0.7025073 -0.7085384 -0.06675953 173 174 160
3.94718942659528 2.48085422010937 -0.357247859239578 0.7512844 0.405787 -0.5204888 181 183 179
3.91076648848684 2.47728712053814 -0.305466741323471 0.6520986 0.2499776 0.7157364 189 192 187
3.95047340410382 2.48189503641644 -0.327744215726852 0.7031534 0.7011021 -0.1184529 177 180 177
3.91047293561132 2.50149197073498 -0.315750002861023 -0.2483245 0.5970349 0.7628134 183 185 179
3.91345295923383 2.44055730791607 -0.309167295694351 -0.1563886 -0.5500216 0.8203772 188 186 177
3.94249702113301 2.47210688086071 -0.313852310180664 0.3342928 -0.498859 0.7996174 184 185 181
3.88936821239621 2.51525790186443 -0.326068878173828 0.6032889 0.5668747 -0.5609774 167 169 160
3.88785595315129 2.4581260153822 -0.306231737136841 0.2940784 -0.2595565 0.9198632 197 188 192
3.92197788375051 2.43676180334606 -0.337840706110001 0.6482587 -0.6545148 0.3890642 165 167 154
3.86861926930577 2.51630312891522 -0.340791046619415 -0.516575 0.8417622 -0.1568015 173 176 171
3.87466827648313 2.51843804808178 -0.349886775016785 -0.533039 0.8434926 0.06625447 180 182 176
3.91609198468358 2.43125397654095 -0.329760551452637 0.8949255 -0.4354713 0.0973298 171 171 159
3.87861568349035 2.51525790186443 -0.306064963340759 -0.04679805 0.4940661 0.8681639 199 200 198
3.86966449635656 2.49161786528149 -0.30120575428009 0.1844911 -0.2362596 0.9540149 180 184 179
3.93304548280866 2.48977202864208 -0.367544502019882 0.6537098 0.5168482 -0.5527489 168 170 161
3.93324560540349 2.47146946878948 -0.317039877176285 -0.01724533 0.1232671 0.9922237 187 189 182
3.92301569002301 2.4514543482832 -0.307032346725464 0.6263332 0.1169034 0.7707401 197 197 198
3.9376489283386 2.45585770102062 -0.322332739830017 0.73101 -0.3245896 0.6002217 187 188 186
3.89136967676313 2.42185444326916 -0.369256913661957 0.2490969 -0.9370826 -0.2445954 169 170 153
3.91626874225766 2.47955758066692 -0.311599880456924 0.5669935 0.2865615 0.77227 184 186 182
3.87818200009496 2.47289270849743 -0.302095323801041 -0.6523802 0.1326631 0.7461907 184 184 178
3.92930931466253 2.49993521662274 -0.337722092866898 0.8711244 0.4432772 -0.2112995 171 173 167
3.90624753254087 2.51005393953838 -0.361962497234344 0.1557522 0.9331607 0.3239637 171 173 162
3.86906403916509 2.47209209890881 -0.312013864517212 -0.4093385 0.1925883 0.891825 180 182 174
3.91005781906278 2.47112841101208 -0.30359274148941 0.3653141 -0.04135203 0.9299654 197 199 198
3.87466824668081 2.51759297342816 -0.351821571588516 -0.677345 0.7337551 0.05298366 183 183 178
3.89699614661367 2.42587966414013 -0.340390741825104 0.3528382 -0.9307147 0.09630922 169 169 153
3.91310349720151 2.48528928251782 -0.311334013938904 0.6595817 0.1547473 0.7355306 176 179 173
3.9183603586498 2.48113591166058 -0.313437163829803 0.5461202 0.2037427 0.8125526 183 185 180
3.9470189275089 2.47688836546459 -0.315735191106796 0.6600676 -0.1811941 0.7290264 189 192 190
3.90791544931562 2.48096544237652 -0.304341435432434 0.5015745 0.2869936 0.8161235 186 188 184
3.92973188179166 2.47482747526684 -0.316572844982147 0.2807433 0.2552365 0.925223 188 189 185
3.9218592705074 2.46559829206982 -0.310212522745132 0.6143733 0.2030665 0.7624365 188 189 187
3.94841257351072 2.48301453085461 -0.329677939414978 0.5392941 0.8226765 -0.1799036 175 177 171
3.91894600408704 2.4581260153822 -0.305119812488556 0.5370085 0.2455164 0.8070586 187 188 184
3.92483929412992 2.4956209132246 -0.369924068450928 0.7101028 0.6273077 -0.3197485 160 164 148
3.92271918671758 2.50596947165051 -0.345728099346161 0.3484569 0.9324538 0.09543477 175 177 172
3.86581716554792 2.51131052465954 -0.361084073781967 -0.769933 0.5907713 0.2412311 183 183 177
3.87013152855069 2.5089494654707 -0.305193930864334 -0.05163819 0.5265957 0.8485461 177 181 176
3.94418717044027 2.47667331190624 -0.362718641757965 0.7049026 0.2349316 -0.6692678 168 168 158
