ply
format ascii 1.0
comment File exported by Rhinoceros Version 7.0
element vertex 495
property float x
property float y
property float z
property float nx
property float ny
property float nz
property uchar red
property uchar green
property uchar blue
end_header
3.84569094198377 1.67398125620403 -0.329404711723328 -0.9612678 0.2667795 0.06923167 200 201 198
3.74311754720838 1.63773179741421 -0.363608211278915 0.4340555 0.898909 0.05965327 199 196 187
3.75210950391919 1.7114983269743 -0.337544173002243 0.3556388 -0.8823516 0.3081829 163 162 140
3.81324431913526 1.62661231251278 -0.359160423278809 -0.7557989 0.6461876 0.1058751 210 211 211
3.84896007793576 1.68063069077053 -0.335653871297836 -0.9001763 0.4249891 -0.09522033 209 210 209
3.76182792204053 1.63168282003918 -0.328870981931686 0.396656 0.8622888 -0.3148365 205 205 198
3.77477095144422 1.69918907375851 -0.311435669660568 0.02034038 0.001354793 -0.9997922 207 207 206
3.84097627418668 1.70869619341412 -0.354089915752411 -0.7925131 -0.2166741 0.5700661 156 157 137
3.68456985669763 1.65272081585446 -0.341547191143036 0.8932489 -0.4177627 -0.1660745 197 197 190
3.76685390489728 1.70765096636334 -0.368144929409027 0.5838766 -0.7609897 0.2828126 149 155 132
3.69938097017438 1.67656094522991 -0.362184911966324 0.5418311 -0.6347338 0.5509375 153 157 130
3.71040258424909 1.6558342644743 -0.316141426563263 -0.03013436 0.6585343 -0.751947 211 210 201
3.84651378410489 1.69266194792309 -0.314237773418427 -0.5706324 0.1072634 -0.8141703 212 211 206
3.73331758993299 1.64391422958889 -0.368767648935318 0.3789373 0.9209108 -0.09126782 197 195 187
3.72562292831571 1.65619010420361 -0.314148813486099 0.08320787 0.3180052 -0.9444306 210 210 204
3.82031629102857 1.71321070881405 -0.311361521482468 -0.09257581 -0.02378097 -0.9954216 211 211 205
3.75110874193341 1.71040863485851 -0.337099403142929 0.4323698 -0.8642364 0.2572001 163 161 142
3.74056748169095 1.6440476247839 -0.328292787075043 0.5634214 0.8226776 -0.07588094 201 200 199
3.80986399071843 1.62754637690106 -0.32019779086113 -0.4315245 0.4583878 -0.7769603 214 212 211
3.7447928847614 1.71005279512921 -0.32982724905014 0.4982103 -0.8610784 0.1016397 164 165 145
3.69875829535157 1.67900723906078 -0.346039444208145 0.6166804 -0.7070574 -0.3460853 177 175 151
3.79247317331464 1.69962275715389 -0.311513483524323 0.09183225 0.05416839 -0.9943001 214 213 214
3.8384632827583 1.73206932039776 -0.329004436731339 -0.8177446 -0.5216303 -0.2433015 150 154 137
3.81920436638028 1.63239443989315 -0.326602607965469 -0.7555072 0.6397147 -0.1413296 208 208 204
3.79221740978391 1.62505561800518 -0.351521342992783 -0.2232599 0.9443551 0.2415541 202 201 194
3.70316160338552 1.6543220350317 -0.339768052101135 0.1691893 0.9195856 0.3545944 192 193 186
3.84829289334447 1.69177240820446 -0.349953502416611 -0.8886561 -0.3202555 0.3282174 180 181 171
3.81704715507657 1.71054203005352 -0.36596554517746 -0.08104129 -0.4687526 0.879604 94 101 68
3.76197246330411 1.67352534027615 -0.313192546367645 0.08699571 -0.06497689 -0.9940874 214 212 209
3.81021983044774 1.68398875685253 -0.311769247055054 0.08444541 -0.04616237 -0.9953582 215 212 207
3.68711397665174 1.65747994871655 -0.321852385997772 0.6690319 0.5727138 -0.4737037 213 212 210
3.77566052096517 1.7117874691061 -0.312458664178848 -0.1515601 -0.2815363 -0.9475056 198 197 194
3.78726924079091 1.62265378923931 -0.336209833621979 -0.04468811 0.9951998 -0.08706532 211 210 203
3.84855974333913 1.70520473213711 -0.316639572381973 -0.8763478 -0.3776553 -0.2989832 202 203 199
3.81933779137761 1.65063036175289 -0.314148813486099 -0.2181493 0.1946994 -0.9562965 210 210 205
3.82805544751317 1.65774685831585 -0.316283762454987 -0.450583 0.5709797 -0.6862632 207 210 206
3.84927139299543 1.68105322809734 -0.339901506900787 -0.9571503 0.2890472 -0.01774658 208 208 203
3.7118496062103 1.64775413961926 -0.323563307523727 0.1058001 0.949867 -0.2942093 201 202 197
3.74414054172666 1.64093417616406 -0.331228315830231 0.5947638 0.7920687 -0.1374163 197 198 197
3.8423661948982 1.6651857564024 -0.321565508842468 -0.7819311 0.3890369 -0.4870668 211 212 206
3.78388894217641 1.7218394348196 -0.346395254135132 0.3827007 -0.9238554 -0.005599563 163 166 148
3.76218373196752 1.71183193417111 -0.346929013729095 0.4947365 -0.7357831 0.462449 153 154 135
3.78371102231176 1.70862949581661 -0.311213284730911 0.07861315 -0.2044773 -0.9757095 193 197 195
3.69660111385019 1.65318781824627 -0.35947173833847 0.4005572 0.8881239 -0.2253661 194 193 183
3.70024088638456 1.64958143921414 -0.323830157518387 -0.03662125 0.9191793 -0.392133 214 215 218
3.82538676875264 1.6473834583334 -0.346172869205475 -0.736256 0.6758182 0.03459583 204 203 197
3.83490503447683 1.73954159708538 -0.323622614145279 -0.9291006 -0.2542046 -0.2686113 193 194 190
3.73857340829999 1.65104550810375 -0.315564692020416 -0.0311767 0.5426193 -0.8393999 206 206 201
3.70542997735173 1.65240950079479 -0.337811052799225 0.3145554 0.8736639 0.3711688 190 193 188
3.76787689941556 1.62848038168469 -0.349597662687302 0.06691912 0.9701903 0.232922 198 198 191
3.80290321128995 1.62136394472637 -0.345372259616852 -0.2173053 0.8552101 0.4705253 198 198 192
3.84222907441289 1.71518254967251 -0.351510226726532 -0.8803831 -0.0108365 0.4741394 161 162 143
3.7125532688442 1.67925704212704 -0.313700616359711 0.1330161 -0.1325652 -0.9822083 206 205 199
3.8011908294502 1.72880024405041 -0.32953816652298 0.3401412 -0.8138549 -0.4711094 174 173 155
3.84473464506299 1.71552360744991 -0.318952411413193 -0.9135538 0.0380278 -0.4049363 204 205 201
3.82842016833455 1.65771127434292 -0.317893862724304 -0.3354685 0.5853972 -0.738086 213 214 211
3.82414138930471 1.64493722410717 -0.366543740034103 -0.8823071 0.4069647 -0.2364614 202 203 197
3.71263537424237 1.68563444109478 -0.355201900005341 0.2882865 -0.9025524 0.3198282 157 162 142
3.72197574990422 1.64996320696392 -0.350264847278595 0.2849428 0.9514816 -0.1161478 180 180 166
3.7480842532459 1.69606453867474 -0.358337581157684 0.4535461 -0.7975298 0.3977967 146 149 130
3.84137657898099 1.67504871578732 -0.359872043132782 -0.8396544 0.5083964 0.191085 194 193 187
3.68585971611173 1.65530056448498 -0.35226634144783 -0.380216 0.9246314 -0.02219617 196 195 180
3.77152407782705 1.7133886286787 -0.362095952033997 0.7061524 -0.6903116 0.1575398 143 148 124
3.7842892171684 1.72063852043667 -0.362140446901321 0.3916172 -0.7939169 0.4651148 168 168 151
3.83703998344571 1.68318814726391 -0.313303738832474 -0.2785919 0.2550153 -0.925934 213 211 203
3.84118754285009 1.67296940775433 -0.317940533161163 -0.538753 0.1031581 -0.8361242 211 210 205
3.80395958440931 1.66604191751995 -0.311691403388977 0.08021452 0.3095824 -0.9474832 213 214 210
3.77012304084928 1.62719053717175 -0.357948392629623 0.04301531 0.9955714 -0.08358933 203 202 193
3.77695039528043 1.71712476702252 -0.359338313341141 0.5801799 -0.777762 0.2418213 157 157 126
3.73918867724569 1.70342559309521 -0.341680616140366 0.4347267 -0.8540614 0.285643 161 163 145
3.69885613637597 1.66915983648815 -0.3140509724617 0.1397049 -0.1460862 -0.9793577 209 208 202
3.81173208969266 1.71214324923077 -0.366143435239792 -0.07398145 -0.4691134 0.8800337 96 101 70
3.73064891117246 1.69181687326946 -0.356313824653625 0.1535436 -0.8639665 0.4795688 167 169 151
3.82061282413633 1.7115502426199 -0.311198443174362 -0.1123785 0.01087393 -0.993606 214 214 209
3.69838764386804 1.66001523228207 -0.314400851726532 0.008199887 0.2858554 -0.9582376 221 220 215
3.83370414989621 1.73460460396328 -0.347062438726425 -0.7914765 -0.5988122 0.1224292 164 167 156
3.74670541899831 1.69439662189999 -0.360895067453384 0.5661871 -0.8173721 0.1064661 147 150 124
3.77052334564359 1.71928197832623 -0.341369271278381 0.4586178 -0.8381405 0.2952798 154 156 134
3.83575010913045 1.733581609445 -0.320153325796127 -0.8585175 -0.4437677 -0.2569397 203 202 201
3.84449002760083 1.72478241415539 -0.317603260278702 -0.8096561 -0.2355478 -0.5375632 198 198 194
3.84629136937291 1.7174894878439 -0.321256369352341 -0.9640703 0.1127851 -0.2405159 194 194 191
3.80605373399884 1.62280202599087 -0.345550209283829 -0.01994957 0.921568 0.387704 197 196 191
3.80891883986623 1.62593401165524 -0.323655962944031 -0.2718403 0.8645096 -0.4227599 219 219 215
3.82894501703412 1.74616879911938 -0.334519684314728 -0.4138663 -0.9099048 0.02807083 180 182 174
3.79474151747853 1.726909942346 -0.322866469621658 0.0521087 -0.9944066 0.09187103 163 165 139
3.76138312237889 1.66241700144329 -0.318596601486206 0.9907694 0.07479571 0.1130555 207 207 201
3.80278313773305 1.62390804977932 -0.331975549459457 -0.01471833 0.9360889 -0.3514556 214 214 208
3.84213269370229 1.697932548242 -0.35406768321991 -0.9109415 -0.2674111 0.3141286 150 153 132
3.83229569214017 1.66204632015743 -0.369078993797302 -0.8258216 0.5088029 0.2431838 199 199 190
3.76004878299863 1.62802077026882 -0.343785911798477 0.2211965 0.9724506 -0.07356699 204 203 198
3.81439331787259 1.69353670568981 -0.310294061899185 0.06321348 0.05310227 -0.9965863 214 213 210
3.71406978982122 1.65940362902203 -0.314237773418427 0.008160814 0.2902465 -0.9569171 211 211 204
3.83116892593534 1.65080828161755 -0.331673085689545 -0.7280499 0.6854315 -0.01126298 208 209 203
3.8485795320812 1.68125588388958 -0.331455647945404 -0.8689083 0.4831513 -0.107532 210 211 209
3.78411129730375 1.62659007998028 -0.356046974658966 0.08872689 0.9804813 0.1754538 202 200 193
3.71565989273221 1.64871782751599 -0.323533654212952 -0.2002001 0.9529152 -0.2277556 207 208 205
3.83534983413846 1.70622772665539 -0.361028492450714 -0.7661551 -0.3443501 0.5426136 133 134 112
3.77690590041311 1.65885878296414 -0.312236279249191 0.03539184 -0.03623968 -0.9987162 215 214 212
3.79020479934842 1.68554551096478 -0.312725514173508 0.05627498 -0.008489097 -0.9983792 213 211 208
3.83259219544561 1.70931894274273 -0.311813712120056 -0.09216159 0.08051004 -0.9924839 210 209 205
3.84233284609945 1.72688765020886 -0.337833285331726 -0.8705243 -0.4373135 0.2257084 174 175 165
3.75037485974462 1.65542060823956 -0.313628435134888 0.0392908 0.2721298 -0.961458 211 212 206
3.81853718178899 1.74825925322094 -0.334208339452744 0.4311668 -0.8915875 -0.138445 157 159 144
3.82043195384176 1.64306915493527 -0.361837983131409 -0.9012015 0.3826818 -0.2034465 197 196 190
3.81884852665097 1.63777626247921 -0.340368509292603 -0.9042984 0.4206932 0.07253747 199 199 191
3.6899368526283 1.67375887127438 -0.355646669864655 0.6499847 -0.7483563 0.1322219 166 168 145
3.7505231262985 1.70716173143902 -0.313859701156616 0.04734876 -0.05961389 -0.9970979 210 210 206
3.73972240703733 1.65120858641186 -0.316224455833435 -0.01421406 0.5623307 -0.8267903 217 216 210
3.7119459869209 1.68928164930859 -0.325668573379517 0.5273454 -0.849595 -0.009750775 169 171 150
3.81006414311559 1.63948864431896 -0.319019138813019 -0.1325585 0.5976988 -0.790686 235 234 237
3.83027935641439 1.74043113680401 -0.351421266794205 -0.796686 -0.4245701 0.4301531 135 139 117
3.82875228541524 1.65782094688931 -0.371584564447403 -0.8572529 0.4235711 0.2927541 197 196 192
3.76660481708677 1.63293708057919 -0.371934473514557 0.3131289 0.7558669 0.5749918 200 198 192
3.78214538710744 1.66759426088848 -0.312227368354797 0.1226807 -0.006903824 -0.9924222 210 207 204
3.80759564655454 1.67847353907147 -0.320820480585098 0.7077621 0.6830251 0.1804152 208 209 204
3.72975937145383 1.69795484037914 -0.326202303171158 0.5828689 -0.7943364 -0.1711538 167 168 149
3.76689836996228 1.63261682482281 -0.318418681621552 0.5019555 0.7021371 -0.5050189 204 204 201
3.70489624756009 1.6864350506834 -0.32582426071167 0.4061307 -0.9048271 0.1278505 168 171 156
3.8096861006561 1.69945598335781 -0.310457170009613 0.0001657186 -0.0579366 -0.9983202 202 202 199
3.71262056248815 1.6635029980711 -0.313733696937561 0.009373276 0.2195222 -0.9755625 222 221 216
3.75764698403508 1.64137894602337 -0.314727038145065 0.2044101 0.4722878 -0.8574151 210 211 208
3.75882563608319 1.63566357584515 -0.367210924625397 0.387601 0.7714396 0.5046251 198 197 190
3.8222288550678 1.74643570871868 -0.322777509689331 0.318264 -0.9306008 -0.1808043 179 179 166
3.81110937016637 1.73887450190106 -0.348708122968674 0.6212237 -0.7609344 0.187243 157 158 134
3.71411428468854 1.64905137510815 -0.331339508295059 0.0009894714 0.989759 0.1427448 205 207 205
3.7303820611778 1.67543125839749 -0.311729222536087 0.03383953 -0.004774298 -0.9994159 213 214 212
3.83010143654973 1.64813960285702 -0.33981254696846 -0.2503526 0.9620994 0.1081127 209 210 204
3.83831501620443 1.66148299665966 -0.318344563245773 -0.4757683 0.3956478 -0.7855618 216 215 210
3.78239891546399 1.67302495928326 -0.312191784381866 0.003707548 -0.04808783 -0.9988362 219 205 209
3.71642488854558 1.64921600313702 -0.361784607172012 0.4751375 0.8151833 -0.3312407 196 193 181
3.76027116792829 1.71316624374905 -0.339693933725357 0.496016 -0.8421493 0.2115483 161 162 139
3.806209421331 1.62871021719494 -0.371858835220337 -0.03509258 0.9195223 0.3914681 217 217 214
3.77858123796613 1.67557502480068 -0.312154740095139 -0.04924493 0.02383222 -0.9985024 211 210 206
3.77032316344411 1.62873244972744 -0.325386881828308 0.3162076 0.8637309 -0.392405 189 192 192
3.73507446664006 1.6458712288908 -0.333607852458954 0.1807421 0.9273706 -0.3275912 201 201 194
3.79248798506887 1.72741395922222 -0.32919716835022 0.297785 -0.9519836 -0.07107197 160 161 138
3.78041965382726 1.63355088921108 -0.313704043626785 0.02540516 0.3972486 -0.9173593 226 224 221
3.76934466379316 1.7115650245718 -0.356046974658966 0.7538832 -0.5753824 0.3171676 144 145 114
3.79087195413739 1.62091917486706 -0.349197387695313 -0.1669877 0.9788762 0.117968 201 200 193
3.84633586424024 1.68517858477154 -0.315738886594772 -0.6806331 0.4566646 -0.572884 207 206 202
3.75031307953031 1.67745543213406 -0.312320291996002 -0.05841647 -0.1384832 -0.9886404 209 208 203
3.71248713749082 1.67494494410076 -0.31367439031601 0.1122673 0.02776609 -0.9932901 215 214 207
3.84206596630246 1.67504871578732 -0.353778600692749 -0.7683739 0.590056 0.2478618 203 203 198
3.79082748907239 1.72717679234066 -0.320464670658112 0.2532142 -0.9565161 -0.1447735 157 157 128
3.77830693739087 1.72066075296917 -0.326135605573654 0.3762076 -0.9215984 0.09552156 155 156 130
3.77010077851445 1.7066724965147 -0.310590595006943 -0.006785023 -0.07198773 -0.9973825 166 170 169
3.83548325913579 1.66575283499279 -0.316283762454987 -0.4867453 0.3354111 -0.8065844 210 208 203
3.76756555455358 1.62861383648434 -0.331984430551529 0.485733 0.8670455 -0.1108857 183 183 168
3.80317006128461 1.63479626865902 -0.313637316226959 -0.4482693 0.07079859 -0.8910905 213 213 209
3.72242051976354 1.69232840033093 -0.31890794634819 0.3563729 -0.878458 -0.3182923 172 174 154
3.70636401193769 1.65000767202892 -0.357025474309921 0.01084391 0.9945292 0.1038946 208 205 195
3.68870628493459 1.65552294941464 -0.339768052101135 0.5759838 0.7759794 0.2570966 196 198 193
3.70051959770353 1.6759649583868 -0.315723329782486 0.2851756 -0.3128363 -0.9059847 211 210 204
3.74619392173917 1.69397408457317 -0.361651182174683 0.5200713 -0.8540924 0.00721659 151 153 126
3.77220237868459 1.64141232462444 -0.314020931720734 0.05846455 0.1635474 -0.9848016 225 225 222
3.72452876585157 1.65558517666378 -0.314371198415756 0.09201048 0.4560041 -0.8852086 203 204 197
3.72703138607175 1.68587166758099 -0.312251091003418 -0.0317535 -0.08759782 -0.9956497 206 205 203
3.73070228713186 1.69895113201656 -0.341502696275711 0.5918948 -0.802357 0.07670593 175 176 162
3.7488403679672 1.63137144537487 -0.34506094455719 0.3764949 0.9023515 -0.2097936 197 196 190
3.84231058376462 1.71974898071804 -0.340746581554413 -0.9765595 -0.2004619 0.07840019 155 156 135
3.84474948661954 1.71077925653973 -0.331791698932648 -0.9873307 -0.003339438 0.1586408 172 173 157
3.78073099868924 1.71140939684429 -0.36945703625679 0.03569551 -0.6490891 0.7598745 151 153 130
3.70110080259473 1.67854762764492 -0.337840676307678 0.3292919 -0.920976 0.2082545 160 162 138
3.81852237003476 1.6375687191061 -0.347047626972198 -0.7897111 0.6127942 -0.02897722 208 206 200
3.81137624996335 1.64173478575268 -0.315260767936707 -0.08926681 0.6934384 -0.7149648 223 223 221
3.83989546316297 1.65722197981396 -0.339688003063202 -0.926979 0.3206535 -0.1946567 202 202 198
3.81542373316915 1.69764346571484 -0.3108129799366 -0.09571178 -0.1159001 -0.9886387 203 203 198
3.69528902190358 1.674559480863 -0.339634627103806 0.5108943 -0.8583564 -0.04702491 169 170 152
3.82107243555219 1.74447864981213 -0.32197692990303 0.4786698 -0.8219554 -0.3086497 199 199 191
3.76847735660703 1.71539015265026 -0.317062139511108 0.5703384 -0.7251042 -0.3859249 187 188 178
3.71374732869298 1.64885128231564 -0.32982724905014 -0.05618969 0.9783201 0.1993303 206 207 207
3.71761689203412 1.68656850548306 -0.358849078416824 0.3399667 -0.8849218 0.3183331 167 168 146
3.80252516883046 1.72642064781704 -0.311880439519882 0.2609304 -0.3061816 -0.9155152 203 201 196
3.68559283631475 1.66348446102657 -0.335854023694992 0.9101931 -0.3842429 -0.1546153 191 191 184
3.84139881151349 1.72797740192928 -0.340435236692429 -0.8605017 -0.479358 0.1724899 168 171 157
3.77776209133298 1.66349560709515 -0.313448280096054 0.108533 -0.03137937 -0.9935974 219 218 214
3.76059735434682 1.65162373276272 -0.313555777072906 0.1102947 0.155317 -0.9816882 218 218 210
3.84571317451627 1.68389982672253 -0.316239267587662 -0.6337897 0.5131824 -0.5787525 211 210 206
3.79941172021062 1.70213574858227 -0.310501635074615 -0.03743684 -0.05277114 -0.9979047 213 213 208
3.7193070711437 1.65040797682324 -0.34403795003891 0.08133874 0.9571797 0.2778326 194 193 188
3.74470392482907 1.70985264273205 -0.323578119277954 0.4993137 -0.8662391 -0.0177631 156 159 140
3.83036831634671 1.74705833883801 -0.325846493244171 -0.2889784 -0.9569691 -0.02649021 173 177 163
3.79838869589002 1.66919989080944 -0.309723258018494 0.005628873 0.08116443 -0.9966848 226 207 220
3.68670479076535 1.66851050348797 -0.338611632585526 0.808717 -0.4989803 -0.3114411 174 175 164
3.81653568761975 1.63644195290127 -0.354623675346375 -0.9091222 0.4045699 0.09909636 191 190 182
3.7842892171684 1.6257079312376 -0.319337904453278 0.1704684 0.8221943 -0.543081 211 209 203
3.73729837554128 1.70064575167217 -0.313681781291962 0.5296913 -0.3480645 -0.7734845 204 204 200
3.80374828594358 1.63368434401074 -0.314148813486099 -0.5193098 0.1214719 -0.8459089 211 212 205
3.69564484673173 1.65721309872189 -0.370502263307571 0.1219168 0.810952 0.5722702 179 177 169
3.76981166618497 1.6206300923399 -0.343793332576752 -0.4910735 -0.04116782 -0.8701448 195 195 186
3.76747659462125 1.71570146770992 -0.344215840101242 0.5065094 -0.7822949 0.362578 151 153 128
3.74259862917096 1.63356567116299 -0.329938441514969 -0.6401701 0.557628 -0.5284253 205 205 201
3.82070547955663 1.72348511906185 -0.311513513326645 0.1382628 -0.06675657 -0.9881432 208 207 203
3.82070178406865 1.65527833195248 -0.31333339214325 -0.2653332 0.2652864 -0.926942 208 209 205
3.68110058324964 1.66170538158932 -0.355201900005341 0.8247228 0.5644929 0.03435268 188 189 173
3.68850614743859 1.65994853468456 -0.349197387695313 0.3829607 0.9114853 0.1501192 193 192 183
3.75440645831258 1.70157021971264 -0.314193278551102 0.2118656 0.01115448 -0.9772351 206 207 202
3.81795898693235 1.63969994278469 -0.357492506504059 -0.8558448 0.515544 -0.04176243 204 202 195
3.72255394476087 1.65267635078945 -0.318641066551208 -0.03029735 0.7635399 -0.6450495 208 207 199
3.7075204314533 1.67994130344906 -0.33865612745285 0.6101812 -0.7348354 0.2961349 165 166 144
3.8129997016731 1.7436335751585 -0.341836273670197 0.7151991 -0.696851 0.05374949 172 173 160
3.81177655475766 1.61482567282238 -0.334786534309387 -0.1384572 -0.1929362 -0.9713935 201 201 197
3.74836594479711 1.69168347807446 -0.312384516000748 -0.1192736 -0.119576 -0.9856345 209 210 205
3.75211689489515 1.69705045910397 -0.363534063100815 0.3201393 -0.9277051 0.1920263 160 162 135
3.80608973520429 1.68920541496792 -0.313278317451477 0.08916784 0.2570154 -0.9622849 213 212 204
3.84059820192487 1.66157192678967 -0.338211327791214 -0.9300284 0.3455843 -0.1249742 205 204 200
3.79914484041364 1.72908932657757 -0.318996906280518 0.2397223 -0.9328753 0.2688435 164 166 139
3.82183966653974 1.74937123747387 -0.333896994590759 0.04068609 -0.9778256 -0.2054307 162 166 150
3.8391971649471 1.6779397794775 -0.316795229911804 -0.4808838 0.2195425 -0.8488532 205 206 200
3.73029310124547 1.69826615543881 -0.326824992895126 0.5757681 -0.806118 -0.1366193 164 165 147
3.74841783064038 1.70344043465176 -0.314141392707825 -0.2289861 -0.06145351 -0.9714879 215 215 212
3.80592772977979 1.73491591902294 -0.343326300382614 0.4039779 -0.9043539 -0.1376442 169 169 145
3.78245080130727 1.65457404346981 -0.309849292039871 0.1834871 0.2305596 -0.9556018 210 210 206
3.84469017999799 1.69920021982708 -0.347640633583069 -0.9163364 -0.209007 0.3415313 169 170 157
3.73896629231603 1.69057149382153 -0.369078993797302 0.5149245 -0.8447212 0.1459411 166 167 147
3.78027508276136 1.62491101713696 -0.349119544029236 0.1949934 0.9705818 0.1412393 202 201 195
3.82252535837323 1.70943755598583 -0.311658054590225 -0.09810022 0.06180847 -0.9932553 211 210 204
3.74643856900365 1.65197581739941 -0.315627694129944 0.0467563 0.3673843 -0.9288932 222 221 215
3.82817406075628 1.67111987562695 -0.31297755241394 -0.08518142 0.07725158 -0.9933662 213 211 207
3.82418588417203 1.67931861372509 -0.312770009040833 -0.00907877 0.02804434 -0.9995654 207 207 203
3.77646113055379 1.64265770407238 -0.312881171703339 -0.007376429 0.1756877 -0.9844183 216 214 211
3.74245778339536 1.68868119211712 -0.311213254928589 -0.05137105 -0.1454283 -0.9880342 199 200 196
3.72324336188466 1.69267309399166 -0.343381881713867 0.4130353 -0.9045188 0.1060539 167 168 145
3.80872980373532 1.62547809572735 -0.325334995985031 -0.1639502 0.9311248 -0.3257713 215 214 208
3.71908468621404 1.68354398699322 -0.364319860935211 0.172823 -0.874552 0.4530907 163 164 141
3.78645381944806 1.62606377096691 -0.355009168386459 0.095094 0.9800518 0.1745151 202 199 191
3.81452307718427 1.6313380667738 -0.343993455171585 -0.9224827 0.3775961 0.08029243 204 205 197
3.72304320948751 1.64813960285702 -0.33456414937973 0.284245 0.9529815 -0.1050291 193 193 189
3.84749228375585 1.6760717103056 -0.345016449689865 -0.8014635 0.5951763 0.05849329 202 202 197
3.69713484364183 1.66510791273632 -0.313848584890366 0.1268501 -0.02288987 -0.9916577 210 210 203
3.74323616045148 1.70898533554592 -0.319575130939484 0.5114112 -0.8476611 -0.1411709 179 180 171
3.82598722594411 1.70289189310589 -0.311428248882294 0.01532764 -0.0854594 -0.9962237 208 207 202
3.78193191307218 1.62363231869259 -0.329182326793671 0.2690725 0.9163501 -0.2964837 204 205 200
3.70050776618154 1.65315080376187 -0.355439096689224 0.5366754 0.8096511 -0.237581 183 182 165
3.8300887407604 1.65913201065579 -0.367350697517395 -0.820927 0.5339202 0.2025044 201 200 193
3.76032677906186 1.67526001425305 -0.313348203897476 0.06338494 -0.08746494 -0.994149 207 207 204
3.83726236837537 1.73278099985638 -0.323800504207611 -0.8534514 -0.5007992 -0.1442947 197 198 193
3.71125656979711 1.65409965010204 -0.318463176488876 0.1114733 0.6713815 -0.7326804 216 216 207
3.79162806885869 1.62594515772381 -0.360806107521057 0.1085268 0.9740776 0.1984811 200 199 192
3.84824839847715 1.68034160824337 -0.326602607965469 -0.7776522 0.6130131 0.1395417 195 196 193
3.71952945607335 1.65080828161755 -0.349686622619629 0.2279247 0.9684252 -0.1010103 197 197 190
3.69809112566144 1.65296549292126 -0.35815966129303 0.3772922 0.9063839 -0.1900493 186 185 168
3.73916641491086 1.70589411945858 -0.332140117883682 0.540313 -0.8339098 0.1125 168 170 148
3.74283585565717 1.6457822987608 -0.319597363471985 0.3519353 0.7378928 -0.5758956 223 225 224
3.72310993688733 1.64749468060055 -0.339612394571304 0.3624599 0.931604 0.02714425 194 194 188
3.69826903062494 1.66032654734173 -0.31468254327774 0.02250135 0.2568867 -0.9661795 218 219 213
3.78827000277669 1.63509649725475 -0.313859701156616 0.01126336 0.2172433 -0.9760525 218 217 210
3.79941172021062 1.72673202248135 -0.326602607965469 0.003942182 -0.9586578 -0.2845342 161 164 140
3.77557156103284 1.72028274031201 -0.325134843587875 0.2466221 -0.9546655 0.1667069 157 157 129
3.8204052509609 1.74314434023419 -0.320976167917252 0.5161565 -0.7566847 -0.4012614 182 183 168
3.83768490570218 1.7066947290472 -0.312747776508331 0.0487434 0.03772314 -0.9980987 205 204 195
3.69375453012616 1.65652365179577 -0.316928684711456 0.2136799 0.6117316 -0.7616596 209 209 205
3.72566739338071 1.64409214945355 -0.365164935588837 0.1787131 0.981528 0.06829651 205 201 194
3.83303696530492 1.73811835737744 -0.341947495937347 -0.9359793 -0.3504244 0.03384471 134 140 116
3.80101290958554 1.72908932657757 -0.318863481283188 0.41181 -0.8510588 0.3257475 160 162 135
3.80030125992925 1.62295401783505 -0.333641231060028 -0.009697181 0.8732833 -0.4871162 217 217 214
3.73990032690198 1.63558203669109 -0.343815565109253 0.368096 0.9088488 0.196212 193 193 186
3.74437034743459 1.6440253922514 -0.322466164827347 0.4881376 0.6879454 -0.537078 214 215 211
3.84449002760083 1.70760650129833 -0.333785772323608 -0.9569457 -0.2901399 0.008583241 156 159 137
3.69035196917684 1.67181665392437 -0.33926397562027 0.5554758 -0.8129844 -0.1746512 165 166 140
3.83908597248227 1.66308415623226 -0.352918684482574 -0.9438071 0.2799948 0.1755881 190 191 184
3.82167289274366 1.64373630972424 -0.374861121177673 -0.8322675 0.5418744 0.1170598 195 196 197
3.79391870515973 1.61931795568981 -0.338344782590866 0.2240829 0.8054286 -0.5487 220 219 218
3.82664329426915 1.6489012906126 -0.349720001220703 -0.6223783 0.7819107 0.03550901 203 203 198
3.84573540704877 1.67180187197247 -0.321821242570877 -0.9117644 0.1600295 -0.3782541 215 214 210
3.80054590719373 1.61949587555447 -0.349642157554626 -0.7531562 0.2196223 0.6200982 211 211 205
3.70851672309072 1.65191132517376 -0.365147143602371 0.02380002 0.9995648 0.01742882 202 200 192
3.84344480055005 1.70547158213177 -0.351777076721191 -0.8917983 -0.1282912 0.4338631 160 160 140
3.7698783935848 1.62979990931072 -0.353897213935852 0.08216816 0.9877192 -0.1328875 195 195 185
3.74227035658986 1.67336488457241 -0.311664402484894 0.05728905 -0.08760329 -0.9945067 211 211 206
3.79426116364629 1.66532588692227 -0.312022775411606 -0.01620378 0.02406615 -0.999579 211 210 204
3.76096058505208 1.71078664751568 -0.313592851161957 0.09420633 -0.6089497 -0.7875947 200 201 196
3.81769210713536 1.63577473850765 -0.346306324005127 -0.8255343 0.5639628 -0.02095314 209 208 203
3.72631973641545 1.69344777555981 -0.318136990070343 0.3198494 -0.8628403 -0.3914115 180 182 166
3.73785433786542 1.63878441544094 -0.349271506071091 0.4652862 0.8495634 0.2484971 183 184 174
3.7489070655647 1.69520831795254 -0.31287008523941 -0.1997404 -0.05015758 -0.9785643 213 215 211
3.83181384819181 1.74154312105694 -0.314749270677567 -0.6993451 -0.3926558 -0.5972754 191 193 190
3.83858189600141 1.67248380871334 -0.3714659512043 -0.7763181 0.5559735 0.2970246 199 198 193
3.73269490020902 1.69319570751705 -0.355201900005341 0.1500054 -0.8428303 0.5168515 159 162 142
3.74946305769117 1.63839895220318 -0.326513648033142 0.3114209 0.9377425 -0.153805 201 202 199
3.7541184188667 1.70951909513989 -0.341940075159073 0.2523178 -0.9011211 0.3525854 152 154 127
3.81133178489835 1.67229110689678 -0.310501635074615 -0.1023069 -0.04361399 -0.9937963 199 200 198
3.73683134334714 1.64169032068768 -0.369078993797302 0.4727535 0.8785095 -0.06873957 199 199 190
3.82836679237516 1.66270608397045 -0.313948661088943 -0.3511294 0.2329923 -0.9068753 211 211 208
3.84571317451627 1.7151233026556 -0.322910964488983 -0.982961 0.1478824 -0.1091718 204 206 201
3.78827000277669 1.72595364542523 -0.345794826745987 0.6498022 -0.6854101 -0.3285879 166 166 142
3.78427810090215 1.72340727539578 -0.351387917995453 0.5218806 -0.8508934 -0.06017581 172 174 154
3.69488871710927 1.65498918982067 -0.365765392780304 0.2695462 0.9053641 0.3281169 177 175 169
3.74638295787008 1.65238726826229 -0.315093964338303 0.021631 0.3437081 -0.9388274 222 222 216
3.76930019872815 1.7165910670332 -0.345416754484177 0.526076 -0.7813208 0.3358303 153 154 132
3.75922594087751 1.63208312483349 -0.331851005554199 0.5091174 0.8452597 -0.1622827 182 182 170
3.70665756481321 1.65711522789517 -0.314291149377823 -0.0230111 0.526867 -0.8496362 211 209 204
3.69591171162755 1.65374381037274 -0.358048468828201 0.4384673 0.8181851 -0.3719134 192 191 179
3.81898198145063 1.63839895220318 -0.344126909971237 -0.8261498 0.5597065 -0.06484737 202 202 195
3.6944706203285 1.6538594433836 -0.318071752786636 0.09470566 0.8079755 -0.5815551 220 221 219
3.80240655558736 1.66129023523846 -0.312933087348938 -0.06051032 0.07815637 -0.9951031 221 220 217
3.73456544297368 1.66161394806423 -0.313862174749374 0.01986173 0.1064172 -0.9941232 210 210 203
3.83584797995717 1.71978456469097 -0.312076151371002 -0.3240203 0.024762 -0.945726 212 214 211
3.72858811038167 1.64499653072872 -0.367626041173935 0.1462448 0.9744377 0.1705397 199 197 189
3.76430977004201 1.62765312881985 -0.357621490955353 0.1843228 0.9827548 0.01476544 205 204 196
3.80417082327039 1.69340325089016 -0.310205101966858 -0.1072593 0.2012843 -0.9736427 211 210 205
3.76876643913419 1.71742130013027 -0.327625602483749 0.4443268 -0.8949772 -0.03986987 156 160 146
3.72107506411702 1.69259525032559 -0.321999162435532 0.3101153 -0.937818 -0.1559678 170 170 148
3.8164022328201 1.73158008547344 -0.312025010585785 -0.06075102 -0.02783721 -0.9977647 204 203 198
3.77454856651456 1.72046060057202 -0.346929013729095 0.4592189 -0.8814784 0.1100628 154 156 132
3.8516435386482 1.68361813517132 -0.325090378522873 -0.8527257 0.5192415 0.05698423 207 207 206
3.79070294516713 1.6730472514204 -0.310901939868927 0.2310301 0.008905872 -0.9729058 215 211 211
3.75613472479017 1.65089721174755 -0.315105080604553 0.1975817 0.08577383 -0.9765267 200 199 191
3.72037453072698 1.65063036175289 -0.321220815181732 -0.03530321 0.9037222 -0.4266614 218 219 216
3.83417115228803 1.6676431366972 -0.315772265195847 -0.4178319 0.3144687 -0.8523649 213 212 207
3.84400079267652 1.71550137491741 -0.345483481884003 -0.9765747 -0.08771899 0.196487 163 165 146
3.80203590410382 1.69737661572018 -0.31067955493927 0.002929138 -0.06195041 -0.9980749 211 210 206
3.80837843435437 1.71925080509701 -0.311720311641693 -0.09658156 -0.06510337 -0.9931936 217 217 215
3.84571317451627 1.67246902676144 -0.326780527830124 -0.9645795 0.2443831 0.09931473 200 200 198
3.76040462272794 1.62999267073193 -0.348430126905441 0.1350781 0.9418628 0.3076496 200 199 193
3.72050795572431 1.69288439245739 -0.319908678531647 0.3236311 -0.9104296 -0.2576448 176 175 156
3.69638613479764 1.68175006599941 -0.32612818479538 0.6286297 -0.7722967 0.09155579 162 164 144
3.81914505975873 1.73168385716 -0.312473475933075 -0.0567788 -0.03566197 -0.9977497 214 213 208
3.69240685420663 1.65183127613583 -0.33155745267868 0.2450915 0.9694871 -0.004996139 198 199 194
3.77539367097051 1.7165910670332 -0.359649688005447 0.5513568 -0.7941681 0.2555441 157 160 134
3.83784059303434 1.71160954924145 -0.356313824653625 -0.7591901 -0.1272674 0.6383051 141 142 119
3.75190935152204 1.63839895220318 -0.323044389486313 0.446208 0.8154871 -0.3686181 205 205 199
3.71885488050611 1.64948875399151 -0.353496909141541 0.2914295 0.9410333 -0.1718287 197 196 187
3.83419338482053 1.63559687824764 -0.338834017515182 -0.9303486 0.3648387 -0.03666424 202 201 197
3.82648984211118 1.69783026667156 -0.311266660690308 -0.01082414 -0.02483644 -0.999633 207 206 199
3.69849141555459 1.65566272230663 -0.343205571174622 0.08579645 0.9770033 0.1952012 196 195 188
3.83828536289365 1.66091961355724 -0.319130331277847 -0.5044177 0.4580189 -0.731971 218 217 211
3.83870047944219 1.6577097842268 -0.337329208850861 -0.9033812 0.3340587 -0.2688998 205 204 199
3.76974496858747 1.71623522730389 -0.314727038145065 0.3071422 -0.7122397 -0.6311721 196 194 191
3.7201817991081 1.69124609919109 -0.337484866380692 0.4202999 -0.8932679 0.1594383 152 155 136
3.68305759745271 1.65080828161755 -0.339768052101135 0.9185196 -0.3891281 -0.07000772 199 198 193
3.71650496738584 1.68150789232769 -0.313303738832474 0.2371421 -0.1312707 -0.9625651 219 219 217
3.74435699599416 1.69364047737637 -0.365520745515823 0.4244004 -0.9054111 -0.01073068 148 149 118
3.75377742069394 1.65232051106014 -0.314771503210068 0.169634 0.1543451 -0.9733457 212 212 207
3.83530533927114 1.7371843525938 -0.329671591520309 -0.9300404 -0.3672495 -0.01235959 186 189 179
3.78438929336698 1.72282905073681 -0.339034199714661 0.0867935 -0.9762319 0.1985906 164 165 140
3.73958898204 1.6897708842329 -0.370190918445587 0.5181755 -0.8395842 0.163072 165 166 149
3.77752859013707 1.72112781496563 -0.333274304866791 0.2597043 -0.8817316 -0.3938312 175 175 153
3.69865820425184 1.68154246302166 -0.352199614048004 0.6005208 -0.7916896 -0.1122602 168 168 142
3.73625311868818 1.64687199087658 -0.321710050106049 0.02888208 0.9649543 -0.2608239 208 208 205
3.74224651473195 1.69277317019024 -0.367533385753632 0.4652207 -0.8840657 0.04469481 147 150 123
3.79634273665578 1.62314302416363 -0.332340270280838 0.1032323 0.9525392 -0.2863777 203 203 198
3.80723980682523 1.62776876183071 -0.36894553899765 -0.1424821 0.9481735 0.2840174 208 211 207
3.72635681050451 1.64905137510815 -0.320242285728455 0.358822 0.8415242 -0.4038364 206 206 200
3.73643103855283 1.69653154106655 -0.350887537002563 0.2405221 -0.7925085 0.5604278 156 160 143
3.72655696290166 1.65138650627651 -0.317284524440765 0.3039595 0.6487205 -0.6976892 208 209 203
3.84649155157239 1.70189113112011 -0.332006692886353 -0.9270601 -0.3608902 0.101577 163 166 146
3.7885739268604 1.69330937357464 -0.311801373958588 0.005614521 0.0123766 -0.9999077 209 209 208
3.78460056203038 1.67402572126904 -0.322332739830017 -0.6392614 -0.6676561 -0.3815498 217 209 210
3.72491127865941 1.67269141169109 -0.312547624111176 0.06329559 0.01622983 -0.9978629 215 215 215
3.84224388616712 1.6846114465765 -0.368901073932648 -0.9208351 0.03763915 0.3881315 199 198 195
3.71058941500814 1.65263188572445 -0.359620034694672 -0.08221782 0.9964997 0.0151189 208 206 199
3.83090204613836 1.65659040899792 -0.359649688005447 -0.7335827 0.6014014 0.3165009 203 203 197
3.82055351751477 1.63949609489956 -0.335720598697662 -0.8914281 0.4272369 0.1510777 191 193 188
3.69888060408265 1.68257660360851 -0.327603369951248 0.4637305 -0.8476543 0.2577522 163 165 149
3.75813624876172 1.62963683100262 -0.347685128450394 0.06650297 0.95721 0.2816494 201 200 193
3.74846229570539 1.69483024569073 -0.36777800321579 0.3273584 -0.9387465 0.1076641 136 142 107
3.74808422344358 1.69381839724102 -0.312480896711349 -0.1390499 -0.07470099 -0.9874639 214 215 211
3.82596499341161 1.64980751963177 -0.317128837108612 -0.6873257 0.05165793 -0.7245101 210 212 209
3.78249899166257 1.671156949716 -0.311747014522552 0.06402408 -0.02497253 -0.9976358 215 206 209
3.71269468086393 1.65297288389721 -0.319308251142502 0.206738 0.6247301 -0.7529752 215 215 206
3.84455675500066 1.70186889858761 -0.342169880867004 -0.9651915 -0.2136019 0.1509291 155 157 134
3.7927400233093 1.73033470602551 -0.357737123966217 0.6170404 -0.7711642 0.1567384 154 159 139
3.74248004573018 1.64827305765667 -0.31788495182991 0.1772554 0.6505271 -0.7385087 216 218 214
3.72035229819448 1.65783578844586 -0.314949423074722 0.1274613 0.2404712 -0.9622511 206 206 198
3.75791386383207 1.68599028082409 -0.312547624111176 0.01388907 0.1003748 -0.9948528 203 203 197
3.82431930916936 1.64909584017315 -0.370302140712738 -0.9213107 0.3791765 0.08609226 207 207 203
3.84622464197309 1.70705056877651 -0.312436401844025 -0.5290742 -0.1979679 -0.8251601 202 203 197
3.6868715794626 1.66470760794201 -0.334119379520416 0.8410715 -0.4966638 -0.2142984 184 185 174
3.75236893313558 1.62993336411038 -0.350887537002563 0.2655816 0.9323168 0.2454623 189 189 177
3.70412740724714 1.67156035395184 -0.313970893621445 0.114126 -0.1424074 -0.9832067 209 208 204
3.77194661515386 1.71891499252834 -0.321721166372299 0.4289393 -0.9029591 -0.0259994 176 177 160
3.70285025852353 1.67994130344906 -0.316595107316971 0.3267226 -0.3636011 -0.8723799 213 213 209
3.69408810752065 1.65881431789913 -0.354267865419388 0.3170637 0.8759978 -0.3634536 173 170 150
3.79809961336286 1.68487829657116 -0.311124324798584 -0.1529606 -0.07135171 -0.9856531 205 204 201
3.74788410084874 1.63492972345867 -0.357781589031219 0.6214709 0.7818472 -0.04988805 194 193 183
3.72028557079465 1.69124979467907 -0.317684799432755 0.2712308 -0.8369515 -0.4753378 183 184 166
3.74670541899831 1.6373759576849 -0.325624108314514 0.3749614 0.8651913 -0.3329382 197 197 193
3.82600945847661 1.65023005695858 -0.364319860935211 -0.7863753 0.6173244 0.02290348 202 201 193
3.75162020939023 1.7117652365736 -0.333074152469635 0.4114516 -0.8746836 0.2561957 160 159 139
3.84295553582341 1.72188389988461 -0.344126909971237 -0.9834822 -0.1807982 0.008642228 169 169 151
3.82093898075254 1.64124555082836 -0.353189259767532 -0.8554614 0.447478 0.260671 200 199 194
3.8466027142349 1.70182437391796 -0.335676103830338 -0.9663115 -0.2540245 0.04139582 188 187 179
3.8261695863548 1.73561871738949 -0.312209576368332 0.03122637 -0.1450847 -0.9889264 207 209 211
3.82289600985677 1.69288433285275 -0.322466164827347 0.8391506 0.5405146 -0.06058264 208 208 199
3.74433327334554 1.64507061930218 -0.31993094086647 0.4580653 0.689909 -0.560537 215 215 216
3.6857707561794 1.66401822062054 -0.319486171007156 0.8283838 0.2396797 -0.5062943 203 204 195
3.79705438631208 1.71712476702252 -0.312503129243851 0.04068749 -0.1187245 -0.9920933 210 210 203
3.72833607214124 1.68474490137615 -0.37194037437439 0.3601186 -0.8775403 0.3166033 160 162 146
3.84300003069074 1.68163145275631 -0.366899579763412 -0.9242486 0.1677306 0.3429736 191 192 185
3.85088372843892 1.68735796900311 -0.31955286860466 -0.6746958 0.26226 -0.6899314 207 207 200
3.76040462272794 1.69963390322247 -0.312970161437988 0.1915659 0.03754551 -0.9807613 211 211 207
3.73055995124013 1.64173478575268 -0.344393759965897 0.6724231 0.7375211 0.06252989 187 188 176
3.76881093400151 1.6291475960783 -0.323311269283295 0.4134296 0.8358293 -0.3612 217 216 213
3.83852998035581 1.67155719490566 -0.371525287628174 -0.7531106 0.5823087 0.3061714 202 202 198
3.82603911178739 1.65346211882153 -0.373215407133102 -0.8776453 0.403677 0.2584254 198 197 192
3.73281944411428 1.68530530424633 -0.313330411911011 0.09346528 -0.0563121 -0.9940287 213 212 207
3.71420878785283 1.6533324191145 -0.317701488733292 0.1882765 0.5840516 -0.7895794 210 210 202
3.75490418689878 1.62996298761883 -0.349671810865402 0.09464871 0.9675342 0.2343483 204 202 199
3.84122089164884 1.66303969116726 -0.326558142900467 -0.8236446 0.5424033 0.1655542 206 207 203
3.74109009521634 1.64355838985958 -0.332195699214935 0.5711647 0.794989 -0.2043609 194 195 190
3.84896004813344 1.68403322191754 -0.340613156557083 -0.9863803 -0.1597857 -0.03901747 202 203 197
3.7083210112396 1.68258769007244 -0.343793332576752 0.5424446 -0.4508585 -0.7088586 164 165 143
3.73450959342153 1.64140564890423 -0.349713325500488 0.5427155 0.7972143 0.2644036 187 187 177
3.76959670203359 1.62707192392864 -0.346247017383575 0.1270121 0.9278525 0.3506531 195 195 189
3.84302226322324 1.7133441636137 -0.33687698841095 -0.9992953 0.01791613 -0.03298373 163 164 147
3.69333199279935 1.67229110689678 -0.361962527036667 0.4158351 -0.7468204 0.5189801 159 160 132
3.83465597646863 1.68951291533032 -0.31279668211937 -0.1384871 0.01301202 -0.9902788 209 208 200
3.84428987520368 1.66707605810681 -0.325624108314514 -0.922456 0.3842061 0.03821847 205 206 205
3.74964097755582 1.71209878416577 -0.33056116104126 0.3803233 -0.9055736 0.1878578 165 164 146
3.691567695314 1.67404056282559 -0.327595949172974 0.8691432 -0.4868118 0.08720227 175 177 164
3.81057564037473 1.61540389748135 -0.33033874630928 -0.9659417 0.2374897 -0.1027386 204 204 200
3.7193515362087 1.68283236713925 -0.366632699966431 0.1821643 -0.8753649 0.4478308 166 168 148
3.8163577677551 1.69515270681896 -0.31030148267746 -0.05576685 -0.04481029 -0.9974378 205 205 200
3.83416671174199 1.65503371449032 -0.323809415102005 -0.7176728 0.6200766 -0.3169397 206 206 202
3.67763130980165 1.6543220350317 -0.352622181177139 0.9646418 -0.162735 -0.2073245 201 200 193
3.84922692793042 1.68545652123013 -0.346128404140472 -0.991802 -0.127738 -0.003441021 198 200 195
3.82604504244954 1.65141314955273 -0.36511155962944 -0.7959521 0.6006616 0.0752721 200 199 193
3.84921208637387 1.68753213377514 -0.318833827972412 -0.6599575 0.3191385 -0.680152 210 209 200
3.7698783935848 1.6291920611433 -0.365120440721512 0.02216021 0.9194863 0.392497 200 198 189
3.80368158834607 1.69751007051983 -0.310457140207291 0.02661014 -0.02442872 -0.9993473 212 211 205
3.71303567903669 1.68174261541882 -0.314348965883255 0.2813532 -0.2718474 -0.9202931 200 201 199
3.76049355285794 1.62898445816555 -0.341280311346054 0.3518316 0.9220854 -0.1611617 210 209 206
3.72653473036916 1.69347364397564 -0.345216602087021 0.5055075 -0.8304405 0.2341596 150 153 127
3.78824777024419 1.70308459492245 -0.372133135795593 -0.1259073 -0.4465932 0.885834 110 114 80
3.8426293792072 1.72341097088375 -0.343948990106583 -0.9752877 -0.219185 0.02778246 165 166 147
3.80159113424451 1.72766602726498 -0.320175558328629 0.2635274 -0.8642893 0.4284358 158 160 134
3.82498649376065 1.74234373064556 -0.314237773418427 0.1913941 -0.6364899 -0.7471606 185 184 177
3.72854361551435 1.68453735800305 -0.369864761829376 0.3639642 -0.8684034 0.3367574 150 153 123
3.80799592154653 1.73829621763745 -0.315394192934036 0.4338916 -0.8153238 -0.3833866 182 183 170
3.78484520929486 1.62249810190716 -0.337922215461731 -0.03583177 0.9874319 0.1539295 207 205 200
3.74090105908544 1.70453757734814 -0.339701354503632 0.4345242 -0.8627589 0.2585261 169 169 150
3.79998991506726 1.65952593775311 -0.326291263103485 0.7426803 0.5019063 0.4433013 209 207 196
3.7303598286453 1.64771706553021 -0.327647835016251 0.1130312 0.9873934 -0.1108073 198 200 196
3.8111538650337 1.73673958273449 -0.351065456867218 0.4231201 -0.8705993 0.2510502 149 152 127
3.84082058685453 1.66765428276577 -0.35110992193222 -0.9579238 0.2342417 0.1658701 189 190 182
3.75617921965749 1.64124555082836 -0.31554988026619 0.3443085 0.5607686 -0.7529876 208 208 206
3.73408854621083 1.70194298716107 -0.331539660692215 0.5836765 -0.8097207 -0.06061443 162 161 138
3.82417104261548 1.64739829988995 -0.36928653717041 -0.9430244 0.3325821 0.009701423 206 206 202
3.71570435779721 1.68839210958996 -0.352533221244812 0.2998896 -0.9156305 0.2677444 161 163 138
3.80168006437452 1.62572277279415 -0.316150307655334 -0.2679339 0.597478 -0.7557986 222 224 219
3.69233123081357 1.6594592401556 -0.352244108915329 0.2987624 0.9540884 -0.02136281 176 175 158
3.77697262781293 1.65305442305126 -0.312525391578674 0.1344989 0.02258625 -0.9906563 215 213 211
3.78068653362424 1.72072751017132 -0.360272377729416 0.5385428 -0.7742096 0.3325225 151 150 121
3.774400329763 1.66965211124935 -0.312429010868073 0.08923556 0.1281787 -0.9877283 210 210 204
3.71245748418004 1.64493722410717 -0.346039444208145 0.9344978 -0.3556941 -0.01398185 194 194 186
3.76984280961187 1.71793425770321 -0.329111158847809 0.3832761 -0.9206805 -0.0738019 158 161 146
3.84366718547971 1.66730958910504 -0.327714562416077 -0.896432 0.4205131 0.139923 202 202 202
3.81232512610585 1.62932545633831 -0.369879573583603 -0.6809916 0.6779538 0.2768196 207 209 208
3.75625926869542 1.65172452421703 -0.313979804515839 0.1939545 0.1096627 -0.9748619 207 207 200
3.69087087231309 1.65605664940396 -0.345298141241074 0.2894337 0.8579175 0.4245064 192 191 181
3.80408189314038 1.73067570419827 -0.319619596004486 0.7233362 -0.6279485 0.287168 158 160 137
3.8307018937412 1.74487895460644 -0.337544173002243 -0.7255068 -0.6709802 0.153054 159 165 147
3.82089451568753 1.6349852749876 -0.321609973907471 -0.4455309 0.7240075 -0.5266074 210 212 212
3.77268049734266 1.6307042905859 -0.367433309555054 0.02132955 0.9057667 0.4232396 198 198 188
3.68855950849683 1.65714193077603 -0.3200643658638 0.674139 0.5359905 -0.5081838 211 211 207
3.78820327537687 1.72779948206463 -0.349820077419281 0.7158555 -0.6982464 0.001721074 164 165 137
3.72415516393811 1.64801729412594 -0.329905092716217 0.1819413 0.9824311 -0.04155093 196 197 193
3.82116139548452 1.64106763096371 -0.333763539791107 -0.836494 0.4877899 0.2496773 204 205 200
3.81991598623426 1.63973326178112 -0.363408029079437 -0.865875 0.4977746 -0.04980846 200 200 196
3.83107993620069 1.69417417736569 -0.371792137622833 -0.2537973 -0.5037842 0.8257048 132 137 114
3.7984598936382 1.72751481028118 -0.321345329284668 -0.07930838 -0.9395227 0.3331776 163 163 141
3.78053084629209 1.72217304201641 -0.343548685312271 0.2885604 -0.9566613 0.03914019 156 158 138
3.73127160089643 1.64511514397183 -0.370591223239899 0.3696746 0.9266123 0.06877688 202 199 190
3.7607900859657 1.69567162485638 -0.312414169311523 0.2131927 -0.002304725 -0.9770074 204 204 199
3.73703891652257 1.70330697985211 -0.327670097351074 0.6455871 -0.761659 -0.05561435 176 178 159
3.84446779506833 1.68874788971462 -0.313540935516357 -0.368889 0.1853868 -0.9107978 207 207 202
3.79100537913472 1.63212758989849 -0.313881933689117 -0.03169812 0.3173161 -0.9477899 215 214 210
3.82209543007047 1.6457822987608 -0.360539227724075 -0.8661348 0.4953237 -0.06682003 198 197 189
3.78041965382726 1.622164554315 -0.33524614572525 0.1287849 0.9916598 -0.005041256 208 208 204
3.79053837674291 1.62325424643078 -0.331372857093811 -0.2298156 0.9595129 0.1628488 205 205 199
3.76250619309575 1.63521880598583 -0.371669828891754 0.4143899 0.7710094 0.4835551 198 198 191
3.68345790224702 1.67002273293057 -0.354623675346375 0.6125386 -0.7903521 0.0118332 172 172 151
3.68612658100755 1.67051196785488 -0.35444575548172 0.5567231 -0.8296154 0.04239873 153 157 132
3.82752171772153 1.64742798300305 -0.322910964488983 -0.6339086 0.7594972 -0.1460272 213 213 207
3.70253891366155 1.67878485413113 -0.33763313293457 0.3180923 -0.9110582 0.2622787 157 159 132
3.77350333946378 1.71977121325054 -0.341947495937347 0.2923441 -0.9203331 0.2598497 147 150 124
3.80691365020902 1.63743526430645 -0.317351222038269 -0.6728123 0.180213 -0.7175283 226 227 226
3.6852147789541 1.66928882093945 -0.319819748401642 0.8244488 -0.5203094 -0.222626 181 184 178
3.72204247730405 1.69217271299877 -0.341502726078033 0.4789152 -0.876256 0.05306206 158 159 134
3.70153818147809 1.67349202127972 -0.314927160739899 0.1557759 -0.1677768 -0.9734397 210 208 202
3.74830663817556 1.69415194483318 -0.369812846183777 0.2619365 -0.9392756 0.2216994 139 140 113
3.8333038451019 1.65288395376721 -0.32586133480072 -0.8134869 0.5598637 -0.1574535 208 209 205
3.82276258485944 1.674515015798 -0.313081353902817 0.06005243 0.005042308 -0.9981825 213 211 206
3.68154535310895 1.66343999596157 -0.345416754484177 0.9741765 -0.05387572 -0.219266 198 198 193
3.84025350826413 1.66167200298824 -0.327403217554092 -0.8126621 0.5683862 0.12852 205 206 201
3.80692846196325 1.62830246182003 -0.319530636072159 -0.5875396 0.3530687 -0.728107 219 219 214
3.80832210796506 1.73579067678967 -0.35137677192688 0.3820027 -0.9064232 0.1801972 164 165 143
3.726334577972 1.64518184156933 -0.361250877380371 0.07993536 0.9202888 -0.3829868 205 202 194
3.6891065897289 1.66846597881832 -0.36894553899765 0.3218368 -0.7825958 0.5328836 157 158 138
3.81419319527776 1.64948881359615 -0.313911586999893 -0.2147941 0.2282261 -0.9496191 220 220 220
3.71432555335195 1.65071935148754 -0.362985521554947 0.4617346 0.8583609 -0.2236461 194 193 186
3.84887108820111 1.69459993334332 -0.31585168838501 -0.7315133 0.1579536 -0.6632789 204 204 199
3.83761820810468 1.73149115534344 -0.324378728866577 -0.8318113 -0.5406822 -0.1255099 186 189 184
3.84564644711644 1.6678655812315 -0.321799010038376 -0.8892881 0.3418122 -0.3038605 216 216 215
