ply
format ascii 1.0
comment File exported by Rhinoceros Version 7.0
element vertex 494
property float x
property float y
property float z
property float nx
property float ny
property float nz
property uchar red
property uchar green
property uchar blue
end_header
4.00814638155133 2.61562222929516 -0.35365629196167 0.962454 -0.1234064 -0.2417709 154 156 149
4.00863561647565 2.61746067495861 -0.353882372379303 0.9258131 -0.3104448 -0.2156248 150 155 145
4.00872454660566 2.61050719709911 -0.34804093837738 0.9964945 0.02313161 -0.0803965 160 162 155
4.00890246647031 2.60783857794323 -0.350487232208252 0.9943085 -0.02913106 -0.1024796 147 151 140
4.00827977674634 2.61824638338604 -0.351465731859207 0.9469129 -0.29607 -0.1252932 164 166 161
4.00857839601667 2.61550778837719 -0.349324464797974 0.9758754 -0.178418 -0.1258345 171 173 168
4.00919899957807 2.61760885210552 -0.349212199449539 0.9764312 -0.1860393 -0.1094146 164 166 159
4.00923607366712 2.62342805357495 -0.35815966129303 0.889048 -0.3647242 -0.2767126 158 161 156
4.01094845550687 2.62531835527935 -0.356380552053452 0.9409513 -0.2374117 -0.2413426 159 163 157
4.01022199409635 2.62156004400768 -0.353571027517319 0.93462 -0.3357987 -0.1171523 162 165 157
4.01099292057187 2.62322790117779 -0.353622913360596 0.9554256 -0.2887181 -0.06167588 151 154 142
4.01039252298505 2.62678617926159 -0.357536971569061 0.9494111 -0.08001571 -0.303671 167 170 167
4.01101515310437 2.62921018095532 -0.356091439723969 0.9401635 -0.03702029 -0.3387066 177 179 181
4.01108191030652 2.62474007101574 -0.352844536304474 0.9722267 -0.2268624 -0.05752111 168 170 167
4.01072607057721 2.62471050711193 -0.351095110177994 0.9544138 -0.2905976 0.06817193 165 167 162
4.00988099592359 2.61940283270397 -0.348352283239365 0.9685781 -0.2061244 -0.1391731 162 163 156
4.00994769352109 2.62249392958203 -0.350376009941101 0.962787 -0.2602796 0.07277125 160 164 153
4.01054815071256 2.62505144568005 -0.34868586063385 0.9472924 -0.3203694 0.0007451677 169 172 170
4.01148215549619 2.62598556967297 -0.353200376033783 0.9703631 -0.2313287 -0.069875 161 166 159
4.01081500070722 2.62651926966229 -0.350709617137909 0.9575197 -0.2856628 0.03940549 167 169 167
4.01103738563688 2.6271864840559 -0.350576192140579 0.9212242 -0.3864112 -0.04508073 170 173 173
4.01236060875089 2.62936586828747 -0.349386394023895 0.8459567 -0.4547612 -0.2784771 167 172 169
4.00891724842221 2.61277563066998 -0.345505714416504 0.9342388 -0.1947161 -0.2988035 171 175 170
4.00881353634031 2.61286456079998 -0.34212538599968 0.8222736 -0.3666343 -0.4352532 183 185 187
4.00915823000104 2.61531085463085 -0.345972716808319 0.9184624 -0.2359269 -0.3174355 176 177 172
4.00983653085859 2.61386532278576 -0.343103885650635 0.8094589 -0.4166857 -0.4137021 179 181 179
4.01062968986661 2.6168082425169 -0.343719184398651 0.7790332 -0.3253399 -0.5359675 165 168 165
4.00835392492444 2.60872811766186 -0.341028273105621 0.8199056 -0.4761003 -0.3179361 184 185 182
4.00967339294584 2.60958797426739 -0.339753240346909 0.6667628 -0.4922658 -0.5595549 179 182 182
4.0103257657829 2.61166376562634 -0.340946733951569 0.7237825 -0.4397694 -0.5317347 183 184 184
4.00939170139463 2.61068517656841 -0.340435236692429 0.7165613 -0.4574086 -0.5266092 189 190 192
4.01143769043119 2.60984010191479 -0.338611632585526 0.6104154 -0.4742194 -0.634436 175 179 180
4.01093575971753 2.60924918146649 -0.337582290172577 0.6062698 -0.4663353 -0.6441804 180 182 184
4.01125977056653 2.61290902586498 -0.338522672653198 0.6706142 -0.3914468 -0.6301159 180 183 184
4.01279429214627 2.6186689803175 -0.342970490455627 0.7734895 -0.2610414 -0.5775564 171 173 171
4.01241621988446 2.60945457907238 -0.33695113658905 0.5857995 -0.4531086 -0.671961 179 179 179
4.01161561029584 2.61193055601635 -0.338745087385178 0.6589492 -0.4022833 -0.6355739 180 180 178
4.01512936371 2.61235303373852 -0.335787296295166 0.7630543 -0.267536 -0.5883644 178 181 180
4.01343921440274 2.61722344847241 -0.340880006551743 0.7797329 -0.3186135 -0.5389824 170 173 169
4.01460454481275 2.6196340987257 -0.339403361082077 0.7851152 -0.3024687 -0.5404691 176 180 179
4.01435843723447 2.61499947996655 -0.337855517864227 0.7684454 -0.2662493 -0.581896 181 183 182
4.01352814453275 2.61571115942516 -0.33878955245018 0.7684598 -0.3261446 -0.5505445 181 182 181
4.01628581302793 2.61882454844036 -0.336387753486633 0.7328685 -0.3813363 -0.5634593 184 188 187
4.00925830619962 2.62318343611279 -0.346840053796768 0.9662325 -0.2131988 -0.14471 177 180 178
4.01100776212842 2.61998099775829 -0.344023108482361 0.7913705 -0.1506476 -0.5924846 167 171 169
4.01112637537152 2.62531835527935 -0.344571679830551 0.8294963 -0.2031363 -0.520261 180 184 179
4.0115933181587 2.62549633474865 -0.344126880168915 0.8472552 -0.1876378 -0.4969413 180 183 177
4.0124733807388 2.62135989161053 -0.343447029590607 0.7678261 -0.09767733 -0.6331684 174 177 175
4.01253060119779 2.62768203707256 -0.345639139413834 0.7599514 -0.6110808 -0.2214818 176 179 176
4.01372835653455 2.62525171728649 -0.341814041137695 0.7929806 -0.08720503 -0.6029736 188 191 186
4.01237175481946 2.6270975539259 -0.343259572982788 0.790684 -0.4313541 -0.4344565 186 188 186
4.01308337467344 2.62774247618237 -0.342258810997009 0.7417726 -0.4579088 -0.4899928 188 190 186
4.0136615993324 2.62783140631237 -0.34134703874588 0.7091012 -0.4351459 -0.5548185 190 193 188
4.01471129673154 2.62941033335247 -0.343984574079514 0.5436584 -0.7972416 -0.2623766 178 181 179
4.01638958471448 2.62998849840679 -0.344497531652451 0.4946777 -0.8090623 -0.3173518 170 174 174
4.01508489864499 2.62193805666485 -0.33981254696846 0.7629564 -0.199969 -0.6147438 179 182 181
4.01597443836362 2.61946958990612 -0.337766587734222 0.7388747 -0.374568 -0.5601456 176 180 177
4.01637474315793 2.62109298201122 -0.339145362377167 0.6890758 -0.3579151 -0.630136 180 183 179
4.01824281232984 2.62110108824291 -0.337188363075256 0.575278 -0.4430784 -0.6875585 180 182 181
4.01856896894605 2.62300545664349 -0.337825864553452 0.5369375 -0.3238733 -0.7789764 182 185 182
4.01447705047757 2.62906939478436 -0.341191351413727 0.605807 -0.6256589 -0.4914761 190 192 187
4.01913235204847 2.63043326826611 -0.341280311346054 0.3827082 -0.8096773 -0.4449237 187 188 189
4.01867280023725 2.62918049784222 -0.339819967746735 0.330937 -0.733389 -0.5938192 190 192 190
4.02063570039899 2.62972170801678 -0.339634627103806 0.4041426 -0.6463736 -0.6472017 186 187 185
4.01935473697812 2.62518496008434 -0.33789998292923 0.4584025 -0.2963394 -0.8378843 185 186 186
4.02077803629071 2.62589663954296 -0.3377665579319 0.4714365 -0.4061973 -0.7827844 181 182 178
4.02246818559797 2.62522942514935 -0.335483372211456 0.5162838 -0.4089923 -0.7524469 183 185 183
4.02384701984555 2.62989956827679 -0.33878955245018 0.5060834 -0.5321575 -0.67874 178 180 177
4.02600417154462 2.62967724295178 -0.33712163567543 0.5387 -0.4576759 -0.7073436 179 180 177
4.01014784591825 2.63299078436413 -0.358337581157684 0.9146339 -0.01295053 -0.4040755 167 170 167
4.01059261577756 2.63593751879254 -0.357714891433716 0.8861444 -0.3017408 -0.3517109 177 179 176
4.01241621988446 2.63553709478893 -0.353389412164688 0.7879117 -0.3297775 -0.5200404 171 175 174
4.01209000366361 2.63741631002941 -0.355869054794312 0.7265632 -0.5663658 -0.389019 181 184 181
4.01272014396817 2.6389212081007 -0.355661481618881 0.7020682 -0.6083845 -0.3700926 182 185 185
4.01383945959241 2.63977367373028 -0.355757862329483 0.6785818 -0.6826231 -0.2712056 181 182 181
4.01452443617017 2.6409211823515 -0.356082558631897 0.5911509 -0.7830652 -0.1932602 185 186 184
4.01646367328794 2.64155275316754 -0.356981009244919 0.3870946 -0.9214621 -0.03264056 174 174 168
4.01469568031461 2.63910645933666 -0.353745222091675 0.6591597 -0.6119071 -0.4371249 175 178 176
4.01587066667707 2.64153797121563 -0.355068445205688 0.4626204 -0.8569614 -0.2271554 184 185 182
4.01812419908673 2.64173073263683 -0.357188552618027 0.2081531 -0.9780722 -0.00686661 173 175 173
4.01873204725415 2.64175290556469 -0.353444993495941 0.3410342 -0.8867639 -0.3120023 183 185 183
4.02015534656675 2.64201242418804 -0.353719294071198 0.283674 -0.9153178 -0.2858711 188 191 191
4.01210484522016 2.63118941278973 -0.353378295898438 0.9431813 -0.131647 -0.3050869 170 172 170
4.01257631796033 2.63459641428509 -0.351616978645325 0.7754751 -0.3240612 -0.5418696 177 179 177
4.01290545480878 2.63136739225903 -0.34974592924118 0.781701 -0.3882161 -0.4880899 173 177 177
4.0142509104553 2.63165647478619 -0.349697768688202 0.6976241 -0.4326385 -0.5710906 170 174 172
4.01609007137449 2.63371581526318 -0.349295228719711 0.5970945 -0.4478436 -0.6655181 173 176 173
4.0150996805969 2.63477725477734 -0.350146234035492 0.5963931 -0.4172026 -0.685753 176 179 176
4.01609007137449 2.63494343252697 -0.349633246660233 0.5956479 -0.4162771 -0.6869621 176 178 177
4.01661196964414 2.63664538355389 -0.350309312343597 0.5820147 -0.4727105 -0.6616673 171 173 171
4.01983956115873 2.63754529448071 -0.347960889339447 0.6444395 -0.5155448 -0.5647223 178 180 177
4.02092633264692 2.64079660864391 -0.349760740995407 0.4699835 -0.7550761 -0.4571384 192 196 196
4.02148971574933 2.64017397852459 -0.349330812692642 0.5167131 -0.7223458 -0.4595912 184 189 185
4.02064464109571 2.64244229288616 -0.356536209583282 0.01890509 -0.9970981 0.07374192 171 175 173
4.01984403150708 2.64204210730114 -0.354668140411377 0.1737572 -0.9801221 -0.09575532 179 181 179
4.02253494280011 2.64302057714977 -0.353222608566284 0.1544059 -0.9873877 -0.03498948 178 182 180
4.01806489246518 2.63199002237835 -0.346617668867111 0.5690748 -0.562758 -0.5995476 177 179 174
4.01830211895139 2.63157493563213 -0.345135062932968 0.5570609 -0.6564903 -0.5086291 176 179 175
4.01806489246518 2.63390249701061 -0.346706628799438 0.624338 -0.4801612 -0.6161552 180 181 180
4.01828727739484 2.63412494154492 -0.346528708934784 0.6181548 -0.4700757 -0.6300107 177 178 177
4.02244350927503 2.63362593145886 -0.343687057495117 0.6446938 -0.4571685 -0.6126719 179 181 179
4.02080032842786 2.63116723986187 -0.341758459806442 0.521336 -0.6822611 -0.5125706 175 178 178
4.02162311094434 2.63792783709088 -0.345372259616852 0.6629689 -0.4481335 -0.5997071 182 184 178
4.02300194519193 2.63726062269726 -0.343404144048691 0.651157 -0.4252271 -0.6286307 182 183 179
4.02274993675382 2.63151556940594 -0.341280311346054 0.535828 -0.6296777 -0.5624894 176 180 177
4.02840600031049 2.64099676104107 -0.357881665229797 0.141159 -0.9818811 0.1264267 165 170 167
4.02304641025693 2.64173073263683 -0.355824589729309 -0.06625242 -0.9915429 0.1115947 171 175 176
4.02420285957486 2.64181966276684 -0.354757100343704 -0.0500939 -0.9871893 0.1514857 166 170 170
4.02608577030332 2.64164180250683 -0.353986173868179 0.03720769 -0.9788181 0.2013226 167 171 171
4.02913991230161 2.64141935797253 -0.35649174451828 0.1502158 -0.9780357 0.1445041 164 170 167
4.03171960132749 2.64159721823254 -0.358092933893204 0.1600488 -0.974124 0.159583 180 185 183
4.04003701227338 2.64153046103039 -0.355668902397156 -0.1382701 -0.984354 0.1092185 175 178 178
4.04186055677564 2.640648431497 -0.357588857412338 0.1298173 -0.9798641 0.1517029 170 176 175
4.04137132185132 2.64088565798321 -0.35662516951561 0.01185806 -0.9910821 0.1327236 169 175 174
4.04397330301435 2.64148611517468 -0.358982503414154 0.2526698 -0.9535602 0.1639537 184 185 186
4.03596720712812 2.64179748983898 -0.351065456867218 -0.1733569 -0.9790826 -0.1065111 175 179 180
4.07295057790906 2.60645980330029 -0.330071896314621 0.0670124 -0.01117644 -0.9976895 191 192 191
4.03785756843717 2.64097458811321 -0.350620657205582 -0.2695159 -0.957464 -0.1030724 177 180 183
4.03605619686277 2.64173073263683 -0.350464999675751 -0.2103989 -0.9750862 -0.07028055 174 178 179
4.04488507526548 2.6403518387846 -0.350798577070236 0.2248459 -0.973438 -0.04315987 168 172 173
4.02994052189023 2.64226443262615 -0.353066951036453 0.07458296 -0.9896334 0.1227316 165 168 167
4.0305632116142 2.64263505430737 -0.349375277757645 -0.03578227 -0.9983619 0.04464313 171 173 174
4.03532234447629 2.64244229288616 -0.357247859239578 -0.02035431 -0.9781413 0.2069427 179 182 182
4.03621188419492 2.64213103743115 -0.357603698968887 -0.1570465 -0.9573178 0.2426501 175 178 179
4.04477391260297 2.64235336275616 -0.355379790067673 0.2753392 -0.9574841 -0.08609571 173 177 177
4.04624161737592 2.64297611208477 -0.35444575548172 0.313954 -0.9357369 -0.1607152 183 186 187
4.04515192526014 2.64262027235546 -0.354045450687408 0.2923221 -0.9361883 -0.19519 175 179 179
4.0236690999809 2.63526660891094 -0.342970460653305 0.6630623 -0.4293347 -0.6132048 177 179 177
4.02402493971021 2.63488120527783 -0.341969728469849 0.6772569 -0.4441805 -0.586538 177 179 176
4.02407834547193 2.6412325570158 -0.346012771129608 0.4927112 -0.772423 -0.4007473 179 183 178
4.02449194210202 2.63927704783001 -0.343808144330978 0.5544801 -0.5738971 -0.6026558 180 183 177
4.02850834148557 2.64130372496166 -0.342107594013214 0.5356982 -0.7122172 -0.4536233 183 187 187
4.02434740083844 2.63307971449413 -0.339100897312164 0.6475604 -0.4806689 -0.5912892 178 180 178
4.02589300888211 2.63603753538647 -0.341680616140366 0.6761313 -0.4506535 -0.5828875 169 172 165
4.02713838833005 2.63148302526989 -0.3363077044487 0.5763236 -0.3481133 -0.7393702 181 183 181
4.02642676847608 2.63537032099285 -0.338478207588196 0.6467503 -0.4564396 -0.6110458 183 184 184
4.02778331058652 2.635437078195 -0.337277293205261 0.6137485 -0.4503422 -0.6484633 179 181 176
4.02843318002851 2.6371198365263 -0.338097661733627 0.6027994 -0.4832311 -0.6349179 181 183 179
4.03023705499799 2.64187902899304 -0.341435998678207 0.4686716 -0.7541804 -0.4599553 187 189 190
4.03034082668454 2.64087922068157 -0.339285165071487 0.5111975 -0.688596 -0.5143079 180 184 178
4.02954021709592 2.63875073881664 -0.33892297744751 0.5727311 -0.5461609 -0.6112998 180 184 177
4.03073368089826 2.63949198217907 -0.337759137153625 0.5490502 -0.5671619 -0.6138983 184 186 181
4.03014061468274 2.63748306723156 -0.33687698841095 0.554498 -0.5006834 -0.6647166 182 186 182
4.03268597143323 2.64100689383068 -0.337475448846817 0.4882687 -0.6391102 -0.594249 190 192 189
4.03203097599179 2.64150828810253 -0.339056432247162 0.4970697 -0.7088692 -0.5004261 181 184 174
4.04492954033048 2.64177519770184 -0.347047626972198 0.1247465 -0.9520126 0.2794823 173 177 179
4.02709392326505 2.64257580729046 -0.347329318523407 0.2195997 -0.9659128 -0.1370706 187 190 185
4.02704945820005 2.64257580729046 -0.346350789070129 0.3166596 -0.9132807 -0.2562131 183 187 186
4.02892861383588 2.64250905008831 -0.344049066305161 0.3757786 -0.8902868 -0.2572546 183 185 183
4.03385452049405 2.64239782782116 -0.347462743520737 -0.1110504 -0.9882171 0.1053322 175 177 180
4.03076336401136 2.64328736753979 -0.342970460653305 0.177589 -0.9683858 -0.1751885 182 184 185
4.03404728191526 2.64303535910168 -0.342866688966751 0.04239669 -0.9988118 -0.02403121 175 180 176
4.03443274515302 2.64297611208477 -0.341391503810883 0.1058354 -0.9931495 -0.04952806 182 184 182
4.03514442461164 2.64213103743115 -0.346484214067459 -0.09997704 -0.9865873 0.1290354 178 179 183
4.0403779508415 2.64272410364666 -0.345550209283829 -0.001795307 -0.97663 0.21492 183 185 186
4.03656772392423 2.64253134222546 -0.342481225728989 0.04043064 -0.9982491 0.04317676 182 185 183
4.03750172870786 2.64270920248547 -0.344838529825211 -0.02097115 -0.9875732 0.1557543 181 184 186
4.03812441843183 2.64306504221478 -0.34314838051796 0.03272846 -0.9965658 0.07606162 182 184 181
4.03836462515027 2.64343864412823 -0.341769576072693 0.036694 -0.9989479 0.02750969 194 196 192
4.04012594240339 2.64279813261547 -0.342080891132355 0.02330143 -0.9965089 0.08016908 184 187 184
4.04404000061185 2.64226443262615 -0.345906019210815 0.05425265 -0.9543759 0.293638 177 180 181
4.04460707920224 2.64284271688976 -0.343715488910675 0.01951749 -0.9852612 0.1699395 176 178 179
4.04601184147031 2.64263505430737 -0.343459725379944 0.04354101 -0.9805382 0.1914389 175 176 178
4.03630081432492 2.64266473742047 -0.339738398790359 0.1259604 -0.985047 -0.1175432 178 183 181
4.03452167528302 2.64253134222546 -0.336943715810776 0.4532508 -0.7117862 -0.5365856 195 198 197
4.04039279239804 2.64282042475262 -0.339579045772552 0.04483593 -0.9983677 -0.03538041 178 180 180
4.04204956310422 2.64322072954693 -0.339289933443069 0.03494202 -0.9993684 -0.00647304 179 180 181
4.04476270692975 2.64299840422192 -0.340868890285492 0.05385184 -0.9938033 0.09723701 179 181 181
4.04288355129392 2.64352101774731 -0.337733209133148 0.08850846 -0.9928019 -0.08068866 179 181 181
4.04461822527082 2.64279813261547 -0.335564911365509 -0.03315304 -0.9004012 -0.4337956 194 195 192
4.01121530550153 2.60783857794323 -0.335676103830338 0.5358259 -0.4825413 -0.6928524 178 181 180
4.01561859863431 2.61117441149273 -0.33456414937973 0.7796548 -0.3168118 -0.5401562 175 176 175
4.01575205343396 2.61144132109203 -0.334786534309387 0.7873665 -0.2989773 -0.539135 177 178 176
4.01642808931501 2.61331827135601 -0.333745747804642 0.8266191 -0.248458 -0.5049451 179 181 177
4.01691958921582 2.61171931715527 -0.332295775413513 0.7934918 -0.2485187 -0.5555261 172 175 173
4.0169974328819 2.61304242105999 -0.33238473534584 0.8042222 -0.2285743 -0.5486168 174 178 178
4.01770905273587 2.61170811148205 -0.330694586038589 0.7083855 -0.2044438 -0.6755685 170 174 171
4.01806489246518 2.6133982607893 -0.331613779067993 0.7675483 -0.2389332 -0.5947945 166 169 166
4.01647851484449 2.61763853521862 -0.336002260446548 0.743264 -0.3629595 -0.5619777 178 180 178
4.01856527345807 2.61942500563183 -0.335120141506195 0.6346001 -0.5078818 -0.5825279 181 184 181
4.01805005090863 2.61760885210552 -0.333037078380585 0.701208 -0.4302122 -0.5685286 185 188 185
4.01899895685346 2.61797947378674 -0.332295775413513 0.6947635 -0.4508508 -0.5603902 188 189 188
4.02060011642606 2.61784607859173 -0.331109702587128 0.5430524 -0.5262257 -0.654355 179 183 178
4.02267578857572 2.61986238451519 -0.331524848937988 0.4354794 -0.6094831 -0.6624863 184 187 183
4.01837626712949 2.60806090326824 -0.329582631587982 0.5787702 -0.09060617 -0.8104416 177 179 175
4.01856896894605 2.61127824278393 -0.329871743917465 0.6569644 -0.1561915 -0.7375649 173 177 176
4.0218677284065 2.60955101938763 -0.327670097351074 0.2315777 -0.05105899 -0.9714755 180 181 181
4.0186579586807 2.61305732222119 -0.330249816179276 0.6881561 -0.1994459 -0.697612 167 172 170
4.02091149109037 2.61135227175274 -0.328959941864014 0.4405518 -0.09432466 -0.8927581 174 176 172
4.02255717533262 2.61316103430309 -0.327951788902283 0.2829146 -0.1325768 -0.9499383 174 176 174
4.01904342191846 2.61526638956585 -0.330116391181946 0.6188173 -0.3235225 -0.7158201 175 179 179
4.02004418390424 2.61539430113354 -0.329276859760284 0.5748316 -0.3146788 -0.7553449 177 181 181
4.02273509519727 2.615377611833 -0.32800367474556 0.2892018 -0.2274254 -0.9298602 178 182 180
4.02244595306546 2.6170010039381 -0.328337252140045 0.3202322 -0.3606289 -0.8760126 184 187 186
4.02002195137174 2.62097067328015 -0.33544260263443 0.5681929 -0.5334788 -0.6265439 180 183 181
4.02269063013227 2.62345034571209 -0.333185344934464 0.4784815 -0.5129592 -0.7126909 181 184 186
4.02650085704953 2.60933596582928 -0.328159332275391 -0.06036379 0.05858499 -0.9964557 171 173 172
4.02811691778333 2.60823888273754 -0.328248292207718 -0.1248339 0.07850294 -0.9890671 169 171 167
4.02478108423383 2.61145610304394 -0.327996253967285 0.001213101 -0.0262257 -0.9996553 168 171 168
4.0287543894592 2.61298317404308 -0.328070402145386 -0.0691817 0.02061233 -0.9973911 167 169 169
4.0288285376373 2.60975117178478 -0.328248292207718 -0.1156534 0.09232951 -0.9889892 166 169 172
4.03280190246732 2.60933596582928 -0.329493671655655 -0.1825738 0.05603362 -0.9815941 195 196 194
4.03051868694455 2.61161918135204 -0.327981442213058 -0.125275 0.09039019 -0.9879959 165 168 172
4.0320976735893 2.61308688612499 -0.328448474407196 -0.1521397 0.1237056 -0.9805868 173 176 175
4.0336766006294 2.61344284506359 -0.328581869602203 -0.2055956 0.1628911 -0.9649854 189 191 194
4.02420285957486 2.61646730394879 -0.3285151720047 0.1776885 -0.3033051 -0.9361799 180 183 184
4.02429178970487 2.61753482313671 -0.32880425453186 0.2462093 -0.4228814 -0.8720965 181 185 184
4.02411386984021 2.61882454844036 -0.329004406929016 0.2627145 -0.4931394 -0.8293338 183 186 185
4.02673808353574 2.61918038816967 -0.329974055290222 0.1873876 -0.5434499 -0.8182592 157 162 159
4.02827260511548 2.6196363637022 -0.329460322856903 0.1848728 -0.5321368 -0.8262278 160 165 159
4.02820584791333 2.61864668818035 -0.328218638896942 0.1141458 -0.3162474 -0.9417846 181 183 180
4.03016290681989 2.61433238478222 -0.328559637069702 -0.05661784 -0.0246729 -0.998091 172 175 176
4.0288285376373 2.61704546900311 -0.327981442213058 0.07172947 -0.1633401 -0.9839588 165 171 173
4.03168997781903 2.6171789834074 -0.327981442213058 -0.008291 -0.0576234 -0.9983039 184 188 191
4.03607842939527 2.61148578615704 -0.330650091171265 -0.2071221 0.11799 -0.9711739 202 203 203
4.0406151773277 2.60970658751049 -0.331005930900574 -0.03526551 -0.01543024 -0.9992589 206 207 205
4.04217193143995 2.61041826696911 -0.331139355897903 -0.01079151 -0.01994869 -0.9997427 203 205 205
4.03855810182721 2.60863918753185 -0.330305397510529 -0.08500074 -0.07976135 -0.9931833 205 207 210
4.04054842012555 2.60846132727184 -0.329960703849792 -0.04093588 -0.05184998 -0.9978155 208 210 215
4.04132685678632 2.6134427258543 -0.330472201108932 -0.002482465 0.05874917 -0.9982697 213 212 210
4.03492203968198 2.61437684984722 -0.328826516866684 -0.2196205 0.1704811 -0.9605743 187 191 196
4.03880271928937 2.61773485632458 -0.329604864120483 -0.2303849 0.06619937 -0.9708452 189 190 189
4.03794649856717 2.61735684366741 -0.328559637069702 -0.2358695 0.08699903 -0.9678826 194 195 196
4.0389872552696 2.61960739584484 -0.329217910766602 -0.1934755 0.03616183 -0.9804385 188 188 188
4.04448477047116 2.61517745943585 -0.329805016517639 0.1424047 0.01802733 -0.9896443 219 219 216
4.04298732298047 2.61746055574932 -0.330175668001175 -0.0008002401 0.01337079 -0.9999103 211 211 209
4.04269078987272 2.61878008337536 -0.32999774813652 -0.02835034 0.07307062 -0.9969237 201 202 200
4.04437360780866 2.61806840391674 -0.329893976449966 0.1135207 0.01623617 -0.993403 213 213 211
4.02466986196668 2.62142652960339 -0.331665694713593 0.3599208 -0.5477043 -0.7552993 188 189 184
4.02656016367109 2.62122637720623 -0.331139355897903 0.2172236 -0.5783217 -0.7863573 176 178 174
4.02369139211805 2.62342805357495 -0.333452194929123 0.4759623 -0.4925948 -0.7285672 177 181 182
4.02682707327039 2.62373942823925 -0.33222907781601 0.2907921 -0.4673432 -0.8348834 188 189 185
4.02805022018583 2.62515527697125 -0.333059310913086 0.2461122 -0.4338258 -0.8667318 190 191 188
4.03203097599179 2.62189359159985 -0.330872505903244 0.1725226 -0.5568432 -0.8125033 176 180 173
4.03421036022336 2.6233612963728 -0.331183850765228 0.2293849 -0.4778858 -0.8479432 187 188 182
4.02656755464704 2.62905449362316 -0.335572332143784 0.4911849 -0.4091053 -0.769006 185 186 183
4.02793899791867 2.62856525869885 -0.334786534309387 0.3679774 -0.3788242 -0.8491672 189 190 186
4.02713838833005 2.62803155870953 -0.334653109312057 0.3882696 -0.4159945 -0.822311 188 190 185
4.02654538171918 2.62521452398815 -0.332903653383255 0.3275925 -0.4550384 -0.8280237 188 191 191
4.03249797838361 2.62944371195355 -0.333218693733215 0.3918188 -0.1264456 -0.911312 196 196 192
4.0321643711868 2.62634140940228 -0.331762045621872 0.2818691 -0.3026015 -0.9104846 197 198 194
4.03381005542905 2.62939924688854 -0.332818388938904 0.3675633 -0.1070476 -0.9238171 195 197 194
4.02624884861142 2.62078160734692 -0.330605626106262 0.2327716 -0.5350808 -0.8120997 182 185 182
4.03016290681989 2.61975855322399 -0.329849481582642 0.1652901 -0.4418768 -0.8817165 167 169 166
4.03069660680921 2.62095958681622 -0.329627126455307 0.178286 -0.5262705 -0.8314165 160 163 162
4.033020591909 2.62128204794445 -0.32953816652298 0.1550041 -0.4412522 -0.8838949 172 176 172
4.03252021091611 2.62011451216259 -0.328693091869354 0.1197569 -0.3172626 -0.9407458 187 186 184
4.03273150938184 2.61998099775829 -0.328237175941467 0.09129161 -0.2846741 -0.9542675 191 191 191
4.03367666023404 2.6205148169569 -0.328114867210388 0.09867381 -0.3119457 -0.9449621 199 198 198
4.03710142391355 2.62184912653484 -0.3285151720047 -0.03338648 -0.2330744 -0.9718856 195 195 196
4.04037055986554 2.62107068987408 -0.329649358987808 -0.1808863 0.02441763 -0.9832008 194 194 193
4.03461066501767 2.62242729158917 -0.329805016517639 0.1682956 -0.447097 -0.8785106 177 177 177
4.03705695884855 2.62207145185986 -0.329004436731339 -0.006075088 -0.2605477 -0.9654418 187 188 185
4.03876618164212 2.62319607229748 -0.329131513834 0.02258579 -0.1498638 -0.9884486 181 184 179
4.04064188020856 2.62546069117108 -0.329662710428238 0.130108 -0.1271799 -0.9833093 185 187 184
4.04401776807935 2.62013668509045 -0.330071896314621 0.0544514 0.07780355 -0.9954806 202 204 203
4.04234979169996 2.62300557585278 -0.329404711723328 -0.04135941 0.0637051 -0.9971114 197 199 199
4.03905842321546 2.62783140631237 -0.329894006252289 0.2338336 -0.141751 -0.961888 195 196 196
4.03997025507123 2.62752003164807 -0.329382479190826 0.2018859 -0.1740141 -0.9638263 185 186 179
4.04328385608823 2.62714189978161 -0.329249054193497 0.06235292 -0.1226541 -0.9904888 186 189 187
4.04424754398496 2.6271568009428 -0.328930288553238 0.03410681 -0.09451505 -0.994939 191 194 194
4.04604152458341 2.62749773951092 -0.329523324966431 0.01359993 -0.079482 -0.9967435 201 202 199
4.04452923553617 2.62944001646557 -0.329389899969101 0.04005649 -0.1572871 -0.9867402 200 202 199
4.02798346298368 2.63095218630352 -0.335409224033356 0.5635148 -0.2857074 -0.7751273 184 186 187
4.02896199243695 2.63448078127422 -0.336120873689651 0.5841129 -0.4098709 -0.700584 182 185 180
4.03037259596021 2.63492555113354 -0.335174143314362 0.5329975 -0.393837 -0.7488699 180 183 181
4.0306076766792 2.6337987849287 -0.333778381347656 0.4957984 -0.2923074 -0.8177654 174 178 175
4.03123036640317 2.63501460047283 -0.334430724382401 0.4994025 -0.3907946 -0.7732248 180 183 184
4.0320532085243 2.63545937033215 -0.334252834320068 0.4990921 -0.4006727 -0.7683544 182 185 182
4.03309843557508 2.63172323198834 -0.332429230213165 0.4125883 -0.1453936 -0.8992395 193 194 190
4.03140828626783 2.6339026162199 -0.332473695278168 0.4735452 -0.2745964 -0.8368703 177 181 181
4.03398797529371 2.63412494154492 -0.332651615142822 0.3950994 -0.2264972 -0.8902783 193 194 191
4.03468630331189 2.63733632059612 -0.333745747804642 0.4457895 -0.4126915 -0.7943283 188 190 184
4.03807995336683 2.63169652910748 -0.331343948841095 0.2416161 -0.1827905 -0.9530001 199 200 196
4.04032609480054 2.63172311277905 -0.331206083297729 0.1401704 -0.1908899 -0.971552 197 197 192
4.03870264309079 2.63476998301067 -0.331828773021698 0.2317521 -0.1876659 -0.9545012 203 202 198
4.0372348787132 2.63577062578716 -0.33136174082756 0.290852 -0.2030734 -0.9349687 195 195 190
4.04266116636426 2.63312429876843 -0.331139385700226 0.1061214 -0.1979684 -0.9744469 197 197 193
4.0405707122627 2.63421399088421 -0.331851005554199 0.1510644 -0.1832737 -0.9713858 207 207 206
4.0355002047363 2.63883966894665 -0.333808034658432 0.4783432 -0.4368998 -0.7617785 191 192 187
4.03872487562329 2.642019815164 -0.335876256227493 0.2963918 -0.8671912 -0.4001642 185 187 177
4.03910294788511 2.64115244837322 -0.332607120275497 0.2820904 -0.5848097 -0.760541 197 200 199
4.04050395506055 2.64128596277752 -0.331739813089371 0.1922773 -0.5695797 -0.7991298 195 197 197
4.04039279239804 2.63657123537579 -0.331228315830231 0.2034575 -0.1809667 -0.9622142 207 208 206
4.04380646961362 2.64190859289684 -0.333485573530197 -0.04791747 -0.7047575 -0.7078283 202 203 201
4.04286131876142 2.63096708746472 -0.329982936382294 0.110598 -0.2115633 -0.9710866 196 198 194
4.04650107639463 2.63160461874523 -0.330042243003845 0.006118122 -0.2094146 -0.9778078 194 195 191
4.03892502802045 2.64239782782116 -0.333985954523087 0.2948442 -0.6637806 -0.6873589 206 206 205
4.03950325267942 2.64230889769116 -0.334119379520416 0.2183418 -0.7916402 -0.5706423 202 203 202
4.04377309101255 2.64337641687908 -0.334519684314728 -0.008025811 -0.9054829 -0.4243069 199 199 198
4.04606369751126 2.64293164701977 -0.334074884653091 -0.04488022 -0.7607597 -0.6474801 198 197 196
4.05513725298078 2.5476377675108 -0.357336819171906 -0.9236823 0.2976866 -0.2412339 151 155 141
4.06245384233625 2.55415374727764 -0.358493238687515 -0.6434758 0.738646 -0.2008507 142 144 126
4.04651591795118 2.53330845327892 -0.361710488796234 -0.4881574 0.8720989 -0.03384996 133 137 119
4.04964420812757 2.53551752062359 -0.363118946552277 -0.6944346 0.7175381 0.05384946 174 175 170
4.04919943826825 2.5359622904829 -0.362985521554947 -0.6944346 0.7175381 0.05384946 176 177 173
4.05007413643033 2.5359771916441 -0.361384302377701 -0.6937039 0.7163907 -0.07456028 183 184 179
4.04684207456739 2.53485030622997 -0.359449505805969 -0.5614604 0.8078322 -0.1793581 144 150 141
4.04860637205274 2.5357695290617 -0.359723806381226 -0.6067093 0.7787538 -0.1595189 174 177 171
4.05093405264051 2.54241163225689 -0.366499274969101 -0.7425197 0.5428549 0.3923939 141 145 136
4.05462572591932 2.54894990416088 -0.367166429758072 -0.8659017 0.3991871 0.3014364 132 134 122
4.05071166771085 2.54005426855602 -0.363964021205902 -0.7520347 0.6197135 0.2244973 128 133 122
4.0557821156326 2.54419071169415 -0.362941026687622 -0.8938271 0.3805237 0.237223 148 151 137
4.05400303619535 2.54187793226757 -0.359872072935104 -0.8369362 0.5314645 -0.1307031 179 181 177
4.0557376505676 2.54298979731121 -0.361473262310028 -0.8650624 0.4935491 0.08986809 165 167 159
4.05529288070829 2.54396838636913 -0.361295342445374 -0.9244331 0.3803538 -0.0274682 163 165 158
4.05653826015622 2.54659254046002 -0.364631205797195 -0.902324 0.336317 0.2696337 141 144 132
4.05622694509656 2.54623670073071 -0.3639195561409 -0.9409584 0.3007739 0.1553461 143 146 131
4.05650857704313 2.54693359823742 -0.363489598035812 -0.9449315 0.2979692 0.1353469 140 144 127
4.05689409988553 2.55032867880383 -0.361206412315369 -0.8880075 0.4594557 0.01852245 135 139 123
4.05649373548658 2.54992837400952 -0.359916538000107 -0.8941267 0.4213195 -0.1517476 143 146 130
4.05738333480985 2.553041882234 -0.366810619831085 -0.8090252 0.5570604 0.1875154 148 150 138
4.06721297519834 2.56042510958233 -0.36574313044548 -0.426341 0.7875926 0.4448946 116 120 98
4.06045231836469 2.55508787127056 -0.362718641757965 -0.6562629 0.7407416 0.1435994 122 127 107
4.0642329217735 2.55725235434094 -0.362066298723221 -0.5365635 0.8175654 0.209013 123 127 107
4.06734637039335 2.55833465548077 -0.363430291414261 -0.4983346 0.8403167 0.2133789 120 124 104
4.06788012998731 2.55869049521008 -0.363207906484604 -0.4803261 0.8532065 0.2032871 119 123 102
4.067524290258 2.55913538427868 -0.362296104431152 -0.5104516 0.8414705 0.1771062 125 132 110
4.06663475053937 2.55842370482006 -0.360494762659073 -0.5585655 0.8291407 -0.02302826 120 125 100
4.06885865944059 2.55824572535076 -0.363163411617279 -0.4769293 0.8572668 0.1939899 117 121 102
4.06983712928922 2.55998033972302 -0.363074481487274 -0.4225344 0.8847555 0.196653 126 129 112
4.06850281971128 2.55958015413799 -0.359901696443558 -0.4270309 0.9041378 -0.01339821 124 127 107
4.07126042860181 2.56184846849957 -0.360049962997437 -0.3539048 0.9352625 0.005950726 120 123 104
4.07617524879605 2.56173724623242 -0.360694885253906 -0.04831174 0.9917576 0.1186708 117 121 102
4.07873270528943 2.56140369864025 -0.360806107521057 -0.05451899 0.966777 0.2497398 115 118 100
4.07717601078183 2.56131476851025 -0.359382808208466 0.04211807 0.9899093 0.1352983 113 117 97
4.0811789991203 2.56153709383526 -0.362407296895981 -0.2588987 0.9049234 0.3377648 123 127 106
4.04982212799222 2.53809732885876 -0.358270853757858 -0.6673343 0.7321562 -0.1364266 159 163 153
4.04590806978376 2.5359622904829 -0.354579210281372 -0.6815531 0.729959 0.05143129 146 150 138
4.05260196941526 2.54149980040112 -0.345461249351501 -0.8504052 0.525735 0.02033764 180 183 181
4.04964420812757 2.53778595419445 -0.348841547966003 -0.7853595 0.6138336 0.08011697 165 171 165
4.04826537387998 2.53391630144634 -0.342970460653305 -0.6989138 0.7080604 -0.1008468 180 181 177
4.04828313606412 2.53594452829876 -0.339474499225616 -0.6629893 0.601244 -0.4460391 184 185 182
4.04982206838758 2.53607351275005 -0.340368509292603 -0.7691756 0.5875254 -0.2513621 183 185 181
4.05004451292188 2.53831965418377 -0.340880006551743 -0.8001077 0.5363811 -0.2685573 179 182 177
4.04858783500821 2.5375858017973 -0.339545667171478 -0.7113076 0.5405305 -0.4492974 182 183 181
4.04737583416135 2.5360513398222 -0.338567167520523 -0.596482 0.6014115 -0.5315199 185 185 181
4.05498150604398 2.54382009001293 -0.357618510723114 -0.9515749 0.1886772 -0.242706 176 179 171
4.05507049577863 2.54476899595776 -0.357751965522766 -0.9469767 0.2090811 -0.2439678 174 176 168
4.05439589040906 2.54552502127209 -0.355550289154053 -0.9626048 0.1979137 -0.1849921 157 160 148
4.05465534942777 2.54890543909588 -0.355913519859314 -0.8990963 0.3588938 -0.2506415 142 145 128
4.05627141016156 2.55057329626599 -0.356425046920776 -0.7721193 0.5728656 -0.2750577 152 153 140
4.05397633331449 2.54696614237347 -0.355655550956726 -0.9567191 0.201019 -0.2104278 145 149 135
4.05409196632535 2.54531747789898 -0.353215217590332 -0.9804828 0.1675118 -0.1029241 155 157 152
4.05173466222913 2.53987640829601 -0.349375277757645 -0.8889188 0.4574246 -0.02420826 164 169 164
4.05237219350965 2.54122549982586 -0.347210705280304 -0.8623803 0.5059811 -0.01683463 176 182 179
4.05366203802259 2.54503578634777 -0.349597662687302 -0.9773349 0.2061936 0.04796617 154 159 152
4.05306897180707 2.54654807539501 -0.352977991104126 -0.9811385 0.1679001 -0.09579537 143 147 138
4.05324689167173 2.54579193087139 -0.352622181177139 -0.9829272 0.1579179 -0.09442501 155 157 151
4.05413643139035 2.54903883429089 -0.353111416101456 -0.9335698 0.3260286 -0.1488377 132 136 113
4.05384734886319 2.54901654215374 -0.351554691791534 -0.9564283 0.285558 -0.06083978 135 139 125
4.05524841564328 2.55050653906384 -0.352666646242142 -0.8758522 0.444368 -0.1882019 135 139 120
4.05426988619001 2.54828268976727 -0.349642157554626 -0.971608 0.2246155 0.0743361 150 153 149
4.05465534942777 2.549246377664 -0.347981631755829 -0.9718258 0.2324303 0.03912481 152 155 146
4.05617502945096 2.55340499372997 -0.349375307559967 -0.8953686 0.3928171 -0.2097853 135 139 128
4.05609349029691 2.55308634729901 -0.348574697971344 -0.9265077 0.3325326 -0.176084 138 142 134
4.05631587522657 2.5563332507185 -0.348085433244705 -0.845735 0.4690593 -0.2543927 130 136 118
4.05889556425245 2.55170745344677 -0.35764816403389 -0.6932209 0.6871254 -0.2174937 147 150 135
4.06129739301831 2.55406481714764 -0.356981009244919 -0.6426956 0.7255505 -0.2460057 151 151 136
4.05967394130857 2.55301959009686 -0.35584682226181 -0.6306289 0.6722918 -0.3877254 157 157 143
4.05871770399244 2.55459851713696 -0.354846060276031 -0.6563863 0.6018708 -0.4548721 151 152 135
4.05822840946347 2.55492097826519 -0.353111416101456 -0.6728979 0.6010603 -0.4312018 140 144 126
4.06237969415815 2.55794925184765 -0.353348642587662 -0.5033056 0.7655842 -0.4007049 127 132 110
4.05738333480985 2.55384249182263 -0.353066951036453 -0.7479386 0.5259553 -0.4049185 143 146 129
4.0593403937164 2.5563777157835 -0.352488726377487 -0.6447334 0.6249902 -0.4401205 139 142 127
4.06850281971128 2.56142587156811 -0.351554691791534 -0.1388494 0.9530782 -0.2690032 123 128 108
4.06487784402997 2.56095892878094 -0.349486470222473 -0.3445899 0.8674183 -0.3589474 114 119 98
4.06587860601575 2.56182617636242 -0.347618401050568 -0.2454961 0.8711178 -0.4253062 133 137 120
4.05164573209913 2.54000980349102 -0.346195101737976 -0.8492323 0.5260891 -0.04510941 178 181 178
4.05393633859784 2.54551393480816 -0.347118020057678 -0.966265 0.2197711 0.1342855 162 163 160
4.05400303619535 2.54374594183483 -0.343860030174255 -0.899754 0.420664 0.1161229 172 176 174
4.054225421125 2.54748208017864 -0.346083909273148 -0.9679118 0.1415507 0.20763 160 164 157
4.05484811084897 2.54699284525433 -0.344393759965897 -0.9564146 0.1907722 0.2210814 162 168 163
4.0557598831001 2.54697055311718 -0.342748075723648 -0.9450763 0.2720274 0.1811958 180 184 183
4.05120090263517 2.54138857813397 -0.337054908275604 -0.5617702 0.5850123 -0.5849572 181 182 181
4.05255750435025 2.54134411306896 -0.340190589427948 -0.7725435 0.6071711 -0.1857949 184 185 183
4.05538181083829 2.54516930075207 -0.341903001070023 -0.9086148 0.4049306 0.1022269 175 178 176
4.05498150604398 2.54414624662914 -0.340880006551743 -0.884781 0.4658584 0.01177131 175 177 174
4.05433664339215 2.54410178156414 -0.33814463019371 -0.7934257 0.5188044 -0.3183044 189 190 187
4.05622694509656 2.5497060486845 -0.341769576072693 -0.9575503 0.1688135 0.233665 173 177 175
4.05681995170743 2.5495132872633 -0.337988942861557 -0.9213942 0.2706621 -0.2788812 205 205 204
4.05679622905881 2.55135161371746 -0.337624222040176 -0.9141043 0.2648615 -0.3070205 210 210 207
4.05449227111966 2.55135173292675 -0.346573173999786 -0.9786469 0.1818643 0.09578964 157 160 156
4.05515942590863 2.55517680140057 -0.345105409622192 -0.9488351 0.2980075 0.1044202 148 154 146
4.05607125776441 2.55399805994549 -0.343504190444946 -0.9397922 0.233698 0.2493512 155 159 152
4.05618242042691 2.55748958082714 -0.345238834619522 -0.8642161 0.4962234 0.08302272 125 135 113
4.05707201975019 2.55181867571392 -0.341280311346054 -0.9547991 0.1963345 0.2231849 169 171 170
4.05690518634946 2.55355329008618 -0.337499678134918 -0.8816578 0.3667933 -0.2968876 182 185 184
4.05880663412244 2.55926877947369 -0.34724035859108 -0.6012666 0.7582288 -0.2521259 131 135 120
4.06018546837003 2.56082541437664 -0.346128404140472 -0.6010104 0.7422835 -0.2963135 129 135 123
4.0575167896095 2.55264157743969 -0.34096896648407 -0.9448001 0.2513798 0.210145 163 166 162
4.05780587213666 2.55473203154125 -0.340724349021912 -0.9199725 0.2706008 0.2835945 177 179 178
4.05765018480451 2.55486542673626 -0.338567167520523 -0.9216831 0.3621481 -0.1391009 176 179 179
4.05858424919278 2.55651111097851 -0.338300287723541 -0.9068497 0.4044794 -0.1184057 168 172 165
4.06160876768262 2.56149262877026 -0.339256584644318 -0.9088818 0.4154708 0.03630399 185 188 188
4.07922199981839 2.63185662718334 -0.332829505205154 -0.6785396 -0.1460081 -0.7199067 188 190 188
4.05864355581434 2.55691141577282 -0.335942983627319 -0.8089395 0.48767 -0.3283213 172 175 173
4.05969617384107 2.55762309523144 -0.336476713418961 -0.8583416 0.4733714 -0.1979123 167 170 168
4.06997058408887 2.56100339384594 -0.357692658901215 -0.3527554 0.9291219 -0.110888 118 122 99
4.07357326763303 2.56158155890026 -0.355735629796982 -0.01074446 0.9999119 -0.007791473 112 120 93
4.07330641763837 2.56118125410595 -0.353511720895767 0.03504217 0.9952762 -0.0905396 118 127 102
4.07437387722165 2.56149262877026 -0.357470244169235 -0.07717644 0.9955117 0.05477563 116 119 100
4.07699809091718 2.56100339384594 -0.35649174451828 0.0491346 0.9955429 0.08049962 107 115 88
4.07922199981839 2.56024724932232 -0.356847554445267 -0.118457 0.9910805 0.06105214 120 129 106
4.07479641454847 2.56120342703381 -0.354223370552063 0.08312713 0.9964579 0.01270713 115 124 96
4.07057843225629 2.56140369864025 -0.35146576166153 -0.04698185 0.9675309 -0.2483477 126 128 111
4.07401803749234 2.56118125410595 -0.349909007549286 0.07385068 0.9284014 -0.3641661 133 139 117
4.07458148019941 2.56089956255474 -0.351169228553772 0.002323696 0.9644194 -0.2643667 136 141 119
4.07957777994306 2.56029171438732 -0.352444261312485 -0.3819408 0.8411787 -0.3828049 172 174 166
4.07966676967771 2.56064755411663 -0.352577686309814 -0.3819408 0.8411787 -0.3828049 175 176 168
4.08318052309186 2.56113678904095 -0.356936514377594 -0.5824151 0.7978434 -0.1556874 178 179 175
4.08215752857358 2.56011385412731 -0.355661481618881 -0.4506828 0.8832781 -0.1292473 184 184 181
4.04710892456205 2.54134411306896 -0.33572056889534 -0.5447251 0.4845081 -0.68449 187 188 188
4.04875466840894 2.54272288771191 -0.335409224033356 -0.510116 0.5178854 -0.6867142 181 183 181
4.0508895875755 2.54476899595776 -0.335097879171371 -0.4767183 0.4927941 -0.7279379 189 191 190
4.04666415470273 2.54485792608776 -0.332874000072479 -0.5280501 0.3805605 -0.7591685 186 187 187
4.05151227729947 2.54379040689984 -0.335453718900681 -0.4790579 0.5087747 -0.7152984 185 186 184
4.04671851413877 2.54745239706555 -0.331198662519455 -0.3907911 0.1677366 -0.9050673 185 187 188
4.0490659834686 2.54694838018932 -0.332785040140152 -0.4105953 0.3879492 -0.8251708 186 187 185
4.04676798599393 2.54905361624279 -0.330842822790146 -0.3556624 0.0559571 -0.9329379 201 201 200
4.05111197250516 2.5494836041502 -0.331791698932648 -0.367753 0.2800014 -0.8867677 197 198 197
4.05436775701673 2.54711741896191 -0.335827320814133 -0.7181954 0.3761896 -0.585386 198 198 196
4.05251297968061 2.54806036444225 -0.334319531917572 -0.5357612 0.3931728 -0.747245 189 190 188
4.05462572591932 2.54854959936657 -0.335542678833008 -0.7285325 0.3334943 -0.5983494 191 193 190
4.0457746149841 2.54632563086071 -0.330383241176605 -0.5137127 0.1718359 -0.8405781 189 189 193
4.04635283964307 2.55720049829998 -0.331295043230057 -0.1961012 0.06497192 -0.9784288 181 185 184
4.05464348810346 2.55162746401348 -0.33393257856369 -0.6663474 0.3126504 -0.6769276 192 193 193
4.0559378625694 2.55126280279675 -0.335676103830338 -0.8259709 0.2559595 -0.5022518 199 199 201
4.05649379509122 2.55542880983868 -0.333674609661102 -0.7182515 0.4251379 -0.5507926 186 187 188
4.05431435125501 2.55348665209332 -0.33238473534584 -0.4706679 0.2872549 -0.83424 196 196 195
4.05404750126035 2.55539912672558 -0.331806540489197 -0.267974 0.2250981 -0.9367608 196 196 193
4.04988137500913 2.55734140368023 -0.33171758055687 -0.08837508 0.09047678 -0.9919696 189 191 186
4.04891029613645 2.5611144969038 -0.331384003162384 -0.1433525 0.2229709 -0.9642271 208 205 202
4.05024907606275 2.559713549333 -0.331201642751694 -0.0545419 0.153577 -0.9866303 208 208 205
4.05128989236982 2.56100339384594 -0.331094890832901 -0.06200811 0.1729394 -0.9829786 209 209 207
4.05713871734769 2.55733389349499 -0.332540392875671 -0.6477219 0.3871114 -0.6562021 193 194 194
4.05200151222379 2.55964679213085 -0.331361770629883 -0.07127736 0.1600421 -0.9845334 217 217 215
4.05255750435025 2.5612035462431 -0.331037044525146 -0.08371764 0.1689351 -0.9820653 216 215 213
4.05412755029828 2.56184846849957 -0.330934762954712 -0.1243823 0.1489663 -0.9809883 212 212 212
4.05560419576795 2.55989140959301 -0.330472201108932 -0.2064627 0.1655258 -0.9643518 204 204 202
4.05813941972882 2.55706710310497 -0.33391922712326 -0.7668351 0.4599567 -0.4476648 181 182 182
4.05738333480985 2.55686695070782 -0.333096385002136 -0.7466928 0.4768897 -0.463709 188 190 189
4.05800602453382 2.55811233015576 -0.332340270280838 -0.7017753 0.352186 -0.6192548 185 187 188
4.05861202495725 2.56142587156811 -0.331806540489197 -0.5254331 0.1574177 -0.8361458 195 194 195
4.05916247385175 2.56172985525646 -0.333022266626358 -0.626241 0.2580639 -0.7356801 190 191 192
4.09186480062635 2.60947317572155 -0.350320428609848 -0.9177902 -0.05116506 -0.3937553 187 186 184
4.07877717035444 2.60561472864666 -0.328559637069702 0.1615946 -0.1216465 -0.9793311 194 196 194
4.09591600912244 2.57726747484722 -0.35730716586113 -0.9892437 -0.0820054 -0.1211275 176 178 173
4.08914051073224 2.59618539305248 -0.357114434242249 -0.9420981 -0.1399403 0.3047424 159 162 156
4.06177184599073 2.63768321962872 -0.333140850067139 0.09206667 -0.2200345 -0.9711378 200 199 198
4.05689409988553 2.57083303423443 -0.374505281448364 -0.1767966 0.5957844 0.7834436 121 124 103
4.06512246149213 2.56344968767681 -0.371658682823181 -0.2382081 0.6988793 0.6744069 116 120 101
4.06583414095075 2.56260461302319 -0.371169447898865 -0.3868402 0.735765 0.5558817 116 120 102
4.06801352518232 2.56327170820751 -0.370635718107224 -0.368743 0.7485651 0.5510706 114 118 97
4.06863627451093 2.56562907190838 -0.372348129749298 -0.3132534 0.7804602 0.5410677 110 116 93
4.05960724371106 2.5694541403822 -0.374505281448364 -0.1509199 0.6291338 0.7625049 114 119 94
4.06939235942991 2.56740815134564 -0.374727666378021 -0.2370356 0.7378072 0.6320243 109 116 93
4.07831761854322 2.56911320181408 -0.373259902000427 -0.2809168 0.7051485 0.6510387 114 118 91
4.08313599842221 2.57243413420239 -0.3731709420681 -0.3367747 0.7043162 0.6249171 111 117 92
4.0877172710243 2.57212287874737 -0.371169447898865 -0.3247714 0.7645259 0.5567977 132 135 112
4.08927396553189 2.57234520407238 -0.370724648237228 -0.3399891 0.7475296 0.5706197 115 119 97
4.06989643591077 2.56470984907665 -0.370072305202484 -0.3160851 0.7743481 0.5481563 115 120 101
4.07192758339078 2.56545121164837 -0.369256883859634 -0.2786273 0.7791931 0.5614489 102 107 81
4.07363257425458 2.5628121563963 -0.366039663553238 -0.1874162 0.8755832 0.4452295 108 113 92
4.07232788818509 2.56420583220043 -0.367388814687729 -0.2152258 0.8186704 0.5324064 105 111 87
4.07486317175061 2.56589598150768 -0.368367344141006 -0.1765866 0.7839692 0.5951551 106 112 88
4.0811345340553 2.56749720068493 -0.369701683521271 -0.3535273 0.6854794 0.6365033 110 113 95
4.08066747205884 2.56364984007397 -0.365543007850647 -0.2321318 0.8114714 0.5363105 117 124 99
4.08304706829221 2.56562907190838 -0.366588234901428 -0.4722783 0.6919447 0.5460455 121 125 108
4.08318052309186 2.56602937670269 -0.366632699966431 -0.5027034 0.6700826 0.5461488 112 116 95
4.08184615390928 2.56852013559857 -0.369879573583603 -0.3832809 0.6856686 0.6188329 104 110 86
4.08713904636533 2.57163364382305 -0.368723154067993 -0.3350552 0.7551968 0.5633967 116 122 98
4.08822134750516 2.56887597532787 -0.365817278623581 -0.5580158 0.7447965 0.3659187 120 124 104
4.08644959943921 2.56387228460827 -0.359427273273468 -0.768616 0.617952 -0.1654226 169 172 164
4.08869574087293 2.56747490854778 -0.36085057258606 -0.7820134 0.5096254 -0.3587995 171 172 163
4.08927396553189 2.56894273253002 -0.35993880033493 -0.7692587 0.5192648 -0.3722971 170 171 163
4.08707973974378 2.59169311018505 -0.375735849142075 -0.8575853 -0.4750949 0.1970593 152 155 147
4.09074172990949 2.58631128759899 -0.374638706445694 -0.896345 -0.4130132 0.161201 159 161 154
4.09089002626569 2.58703774900952 -0.373652786016464 -0.8933285 -0.4208211 0.1577145 161 162 153
4.09029696005017 2.58893544168987 -0.373452633619308 -0.8730648 -0.4634546 0.1515507 151 154 141
4.08909604566724 2.5901364752821 -0.37070244550705 -0.8686873 -0.4813723 0.1168891 155 157 148
4.08620498197705 2.59369463415661 -0.374794393777847 -0.8727295 -0.4580092 0.1690287 152 155 143
4.08839926736982 2.59295327158489 -0.372162789106369 -0.8516783 -0.503928 0.1438772 151 154 146
4.08954081552655 2.59093696566143 -0.3731709420681 -0.8541356 -0.4975379 0.1513555 155 158 145
4.08702782409818 2.59467310400524 -0.370146453380585 -0.8835224 -0.4575166 0.1003332 149 150 140
4.08767274635465 2.59436172934094 -0.370769143104553 -0.864224 -0.479585 0.1520368 150 153 142
4.08457413929136 2.59892816038647 -0.373452633619308 -0.9188552 -0.3265473 0.2215218 149 151 140
4.08418128507764 2.60067767591992 -0.373348832130432 -0.9369413 -0.2845026 0.2029761 150 152 143
4.08364752548368 2.60265690775433 -0.374216169118881 -0.9369993 -0.310289 0.1604775 154 154 144
4.08233544843824 2.60645980330029 -0.373637974262238 -0.932922 -0.3407425 0.1164089 143 145 135
4.08243325966031 2.6056324908308 -0.371729850769043 -0.9199165 -0.3615474 0.1517799 146 149 137
4.08413676040799 2.60280150862255 -0.371291756629944 -0.9322401 -0.3010317 0.2007691 146 148 139
4.08304706829221 2.60387999506512 -0.372058987617493 -0.922649 -0.3411928 0.1797395 146 148 138
4.09009233730466 2.58963818045178 -0.367860287427902 -0.8714303 -0.484299 0.07786915 152 154 145
