ply
format ascii 1.0
comment File exported by Rhinoceros Version 7.0
element vertex 494
property float x
property float y
property float z
property float nx
property float ny
property float nz
property uchar red
property uchar green
property uchar blue
end_header
3.93382075918044 1.82367421350885 -0.353089600376344 0.1238411 -0.9322914 0.3398471 162 165 153
3.97226286302767 1.79711376463113 -0.354280415622098 0.03717907 0.8572263 -0.513596 181 179 168
3.97307326389106 1.84357662314703 -0.346682715372464 0.4342326 -0.894622 -0.1053252 156 156 143
3.92399936500451 1.80242670849415 -0.382194341872166 -0.1246752 0.2106752 -0.9695731 204 202 202
3.92553341551249 1.8163830739574 -0.32375848504408 0.5279208 -0.6661029 -0.5268838 161 162 147
3.9100852363917 1.77655020251959 -0.366344468223442 -0.9969991 0.005640574 0.07720691 164 165 155
3.96349466965173 1.74637277204598 -0.374163184009179 0.1507384 0.04715885 -0.9874482 199 198 194
4.01620706084099 1.80760354302535 -0.363904811482758 0.8616949 0.2671411 -0.4314134 181 181 175
3.95027836572211 1.72838252823598 -0.371270864801276 -0.3536223 -0.7711641 -0.5293933 200 198 194
3.99634175724852 1.76223655615753 -0.351323311666961 0.6616125 -0.7495248 0.02194163 183 184 176
3.9210407628456 1.76973673385801 -0.321080391074678 -0.3344753 -0.2564959 0.9068275 153 156 145
3.99910935419906 1.80756715617686 -0.353671414789062 0.4130334 0.02089474 -0.9104761 183 182 175
3.92220162365684 1.74822745144221 -0.344603295795093 -0.5437375 -0.7604342 0.3550907 152 155 143
4.02137698630643 1.80527051089601 -0.354468951806315 0.9488131 0.002053487 -0.3158314 185 185 179
3.98319246521013 1.74890875922288 -0.347858303083093 0.9460067 -0.3214616 0.04163919 176 176 169
3.95087700854434 1.82872036448972 -0.357385512424313 0.5447009 -0.8318585 0.1063594 157 158 144
3.97314949264005 1.76965554904698 -0.381069096746201 -0.02307157 -0.06148381 -0.9978414 223 199 211
3.91519358601729 1.76908244222938 -0.322533947804882 -0.4302836 -0.1491563 0.8902856 154 156 143
3.90933857652506 1.79792341183269 -0.34138677046049 -0.9933665 0.02497112 0.1122477 162 164 151
3.97572687246221 1.77072057774379 -0.381104403331658 0.004886912 -0.1672516 -0.9859021 225 197 215
4.02162834070954 1.80044649890899 -0.352154409801176 0.9291044 -0.3684417 -0.03187046 183 181 175
3.97228633280635 1.73372997367443 -0.355974574913853 0.5879682 -0.8086238 -0.02051958 198 197 189
3.9444136567363 1.73897010691348 -0.337043681159585 -0.6095768 -0.7542024 0.2441206 156 158 147
3.92295221370164 1.75229981851462 -0.334891713425007 -0.252935 -0.9204012 0.298137 154 157 142
3.98592793532263 1.84846255544683 -0.348652518781006 0.1490426 -0.9834192 -0.1033098 176 177 172
3.97781378828934 1.82817010432278 -0.374958611538506 -0.1764914 0.04158995 -0.9834232 199 197 193
3.9748416763077 1.76668128106564 -0.379686463769181 0.1028293 -0.1529745 -0.9828657 199 199 196
3.9837332634506 1.74886758434622 -0.353737985341909 0.8994839 -0.3942272 0.1884506 179 178 167
3.9111580798415 1.79595620654839 -0.370969070815661 -0.8943716 0.3309956 -0.3009006 176 179 171
3.91138390875128 1.75394237920459 -0.338819859274765 -0.9716876 -0.2291005 -0.05775985 167 168 157
3.94835143377396 1.73760711119443 -0.335395341243894 -0.4172557 -0.8261066 0.3787421 161 164 154
3.99888499847404 1.79024306266358 -0.350472191485654 -0.4446703 -0.3216149 -0.8359618 172 172 151
3.96631298562564 1.76223325296066 -0.378726550585308 -0.2432289 -0.08694328 -0.9660645 221 219 215
3.94324101308096 1.77284505243596 -0.383388022635984 -0.04131863 0.04459567 -0.9981503 210 206 199
3.93598959417912 1.74208677438237 -0.348448655457965 -0.2468522 -0.897891 0.3644939 162 165 156
3.96881597741402 1.78802134416995 -0.381183494924475 -0.1351973 -0.1863351 -0.9731398 237 205 228
3.95439724251268 1.83286827358766 -0.345501867105513 0.4746369 -0.8481122 0.2354261 140 140 119
3.98574223503046 1.76317926969751 -0.380087993855961 -0.09463073 -0.27624 -0.9564186 206 205 204
4.01443608330373 1.79447876453633 -0.37447633003137 0.645643 -0.1986558 -0.7373472 193 193 190
3.97266562735142 1.81108443590519 -0.378223054740132 -0.3794031 0.3907035 -0.8386919 185 184 175
3.94478714765916 1.77491285584913 -0.38254513055248 0.07741074 0.1770429 -0.9811541 180 175 169
3.91753362672014 1.7542939937027 -0.329523948613574 -0.2271677 -0.7674205 0.5995502 169 171 161
3.92902881263373 1.79301989574296 -0.380487394765482 0.1384587 -0.1036571 -0.9849286 208 206 201
3.97383408109954 1.76765819644742 -0.381080216721563 0.07822029 -0.1573268 -0.9844439 212 205 207
3.91555582160953 1.81221918770578 -0.369684031792356 -0.7250056 0.2594554 -0.6380046 181 183 174
3.91108936993228 1.78968290301821 -0.362910190597588 -0.9913378 0.03084235 0.1276639 169 171 160
3.9746164367697 1.82057220404064 -0.361219041613315 -0.6076163 0.2453684 0.7553785 182 184 179
4.00366524395893 1.76736026449824 -0.374525594196755 0.6338433 -0.4814035 -0.6053869 193 192 184
3.96160839530027 1.82562843312471 -0.37466118434291 0.2591896 0.5842434 -0.7690777 182 182 176
3.95557025922288 1.73822488131947 -0.37555755931298 0.1685624 -0.253661 -0.952493 203 203 200
3.99542241734727 1.84793627151876 -0.350700727749033 -0.3240058 -0.9384842 -0.1194476 185 186 183
3.90922455511614 1.76349653347075 -0.360328436192752 -0.9630018 -0.05554899 -0.2637079 169 172 161
3.95165470471925 1.76379129164774 -0.378826561424962 0.2834525 -0.1212332 -0.9512923 217 214 211
4.02018752006684 1.79936110428471 -0.362639164833207 0.9779404 0.1218408 -0.1696681 189 189 184
3.91133969695355 1.7613852547221 -0.343149972081183 -0.9496592 -0.09288279 0.2991992 162 164 155
3.92852630139913 1.78871026749223 -0.379961952673864 -0.06470218 -0.1687896 -0.9835262 206 205 200
3.99072971001798 1.81198478861284 -0.358473885494038 -0.9939355 0.08677087 0.06755007 188 187 183
3.91005875296792 1.77438632604793 -0.32538785733752 -0.7319302 0.1613636 0.6619969 161 161 149
3.92968245810077 1.82316639749041 -0.353097925277838 0.009879483 -0.9577852 0.2873149 167 169 156
3.95496265298046 1.83085421513193 -0.356155248303467 0.4706333 -0.8760992 0.1046636 176 176 167
3.98131903409648 1.74928351301456 -0.375427242491446 0.4657677 -0.6896437 -0.5544835 201 199 197
3.94972250977915 1.73563655908732 -0.347034259997984 -0.3828973 -0.9234581 -0.02479506 139 141 126
3.97368551063246 1.73678128376228 -0.364802257529796 0.651303 -0.7479554 -0.1279341 194 193 187
3.97096141447176 1.80677267104468 -0.345242863200427 0.7790757 -0.6140153 0.1265947 177 176 160
3.98776523831748 1.84686553395623 -0.344208666822153 -0.00138147 -0.9389985 -0.3439186 172 174 164
3.99205509351677 1.84444256311139 -0.365664638889778 0.4085747 0.5753147 -0.7085758 217 215 218
3.93787450602469 1.74834806671879 -0.379734477779069 -0.3545352 -0.360118 -0.8629136 214 211 208
3.95163957073574 1.73565270042621 -0.345637929615378 -0.3975691 -0.9175658 0.003448769 155 156 144
4.00772372896433 1.77608638870394 -0.373216389927392 0.8483028 -0.3894114 -0.3588051 177 178 166
3.9327588489415 1.75343010233849 -0.326864453183152 -0.349992 -0.8861598 0.303688 165 168 156
3.90842203925377 1.76739979168704 -0.347357138258598 -0.9444125 -0.2865851 0.1611025 174 176 168
3.99063137389475 1.77488745707685 -0.379231973782732 -0.002044479 -0.03195947 -0.9994871 193 192 187
3.96267868220845 1.83688486520487 -0.352315422712214 0.6669703 -0.7107365 0.2236162 151 154 137
3.91608498870088 1.75155927402888 -0.344839556111023 -0.2788471 -0.9045998 0.3224026 156 158 145
3.90909257188245 1.77844875517722 -0.370624355441676 -0.9925069 0.1215987 -0.01199183 161 165 151
3.99983139051301 1.76531490079853 -0.353479437984149 0.6464463 -0.7579235 -0.08751616 176 175 164
3.9587266290774 1.83164373658208 -0.364860746051944 0.6611782 -0.7498251 0.02461228 151 153 137
3.94356204041793 1.80076800402759 -0.382867559835772 0.126137 0.07408799 -0.9892423 203 199 199
3.90946881051303 1.78969558394178 -0.347954896960313 -0.9338723 -0.1453895 -0.3267176 169 170 160
3.95635358371253 1.72740162261823 -0.372624064796995 0.08778628 -0.7871284 -0.6105101 196 194 188
4.01194920622518 1.80979029680975 -0.368849120280263 0.5498299 0.4260252 -0.7184634 183 184 180
3.92269209640979 1.74834311483461 -0.369278528472008 -0.5151228 -0.5715319 -0.6387486 190 191 187
3.95056015403611 1.76868711039773 -0.338395016094834 -0.1317649 -0.8431888 0.5212204 156 155 135
4.00247759492863 1.84436035654171 -0.34792107691259 -0.4625624 -0.8761885 -0.1353869 177 178 169
4.00365168213685 1.7663108069169 -0.372729539346205 0.726356 -0.5391942 -0.4262354 183 183 173
3.95757771189406 1.83243735325267 -0.35605766030314 0.3854501 -0.9108007 0.1478861 145 147 130
3.95593245280838 1.80733953430209 -0.375884027335901 0.2054422 -0.2675408 -0.9413902 210 199 203
3.91689078235969 1.8143376109125 -0.327780948428906 0.587316 -0.5798775 -0.5646256 156 157 141
4.01881268640858 1.78683403423205 -0.35274989454433 0.9004499 -0.3358232 0.2764286 175 174 167
3.94438058346735 1.82451839127578 -0.351577406235296 0.2069696 -0.9164488 0.3424694 171 172 161
3.99795075012507 1.76158785272898 -0.369855956584117 0.662999 -0.7199177 -0.2053065 182 182 173
3.98795643729968 1.78279301116768 -0.349221738558174 -0.540504 0.3156785 0.7798734 172 171 155
3.92767143775107 1.75209954865886 -0.330212481867929 -0.0891627 -0.8600926 0.5022855 160 162 147
4.01890492038452 1.79055274818301 -0.348392448552266 0.9179717 -0.2359037 0.3188689 172 171 161
3.9874286086082 1.83989282708425 -0.353876207163122 -0.4157474 -0.1835495 -0.8907658 197 197 195
3.91141743276718 1.75702097300982 -0.341692408084986 -0.9427319 -0.08276942 0.3231191 142 144 124
3.97035800902395 1.80310241281532 -0.359083887993932 -0.938831 0.2393313 0.2476222 181 179 158
3.96211082078393 1.77412639590198 -0.380190050481947 0.2649702 -0.2278472 -0.9369506 231 209 223
3.94365945614311 1.7920829743151 -0.316814277982326 -0.311041 0.001388457 -0.9503955 164 162 146
3.96642677314125 1.83014716455533 -0.371430102923711 -0.1607704 0.2292569 -0.9599969 175 173 160
3.90943458752825 1.7641012603597 -0.34525000531896 -0.9673941 -0.1543553 0.2008062 157 159 146
3.90922224693282 1.76626879025542 -0.33901694065287 -0.9372759 -0.3375848 -0.08689303 165 167 156
3.94760895885054 1.79267102520957 -0.367162150101641 -0.717319 0.6268651 0.3041276 221 185 209
3.96387036547222 1.73951186670379 -0.325224890051958 0.2654554 -0.8276271 0.4945369 140 142 126
3.90934374619147 1.79368733645294 -0.342463787099663 -0.9940688 0.08738896 0.0647332 160 163 149
3.90810784449079 1.76817967470001 -0.357454154922329 -0.9750391 0.02579795 -0.2205296 176 177 167
3.98157732219583 1.82934231038925 -0.375305942891009 -0.125639 0.1457509 -0.9813111 195 194 187
3.93202643327084 1.82169141442239 -0.364451862034304 0.08565635 -0.9947214 0.05650015 132 138 112
3.97201005359793 1.81698399397367 -0.372497272304561 0.02710176 0.3695239 -0.9288259 174 175 167
3.909567491984 1.78016335123644 -0.350813627147537 -0.9305908 0.2213594 -0.291549 169 171 158
3.91081429870823 1.77076611160084 -0.32485450167908 -0.7275656 -0.05903935 0.6834929 157 158 146
3.97999762835009 1.81823945117075 -0.377284840622236 -0.3311328 0.3609309 -0.8718256 181 179 167
3.95402203459409 1.79576949952137 -0.378517323888308 0.2247456 0.3045911 -0.9255883 215 200 202
3.95654023531669 1.728942436313 -0.355670239351418 -0.09554382 -0.8633337 0.495506 142 144 126
3.97260860378023 1.76328154749876 -0.379266820232229 0.03629554 -0.2214175 -0.9745034 210 209 204
3.94576991563509 1.77881974149051 -0.358607170474116 -0.4348002 0.6731875 0.5981366 200 200 192
3.93410942413798 1.82703522975348 -0.345952076888778 0.1650832 -0.9032844 0.3960111 176 176 168
3.96872262070111 1.73286070586802 -0.349022769361435 0.3662093 -0.9299697 -0.03235812 200 199 196
3.94346498437623 1.76834183875598 -0.383123047875465 -0.08951762 -0.1424966 -0.985739 216 211 212
3.92300596331064 1.81898143196636 -0.371635343771852 -0.3127306 0.622463 -0.7174534 200 199 194
3.90821215068166 1.77703060032302 -0.336795827590166 -0.9931294 0.03928507 0.1102303 160 162 145
3.99898232497768 1.76114854686641 -0.364457500808541 0.7617874 -0.6167976 0.1980926 175 175 164
3.94120778865351 1.73318733403654 -0.366849825220871 -0.6075615 -0.788185 0.09814991 146 149 139
4.01935977245121 1.7974172241427 -0.36367908393247 0.9733201 -0.05809446 -0.2219753 183 183 175
3.97751380790906 1.84612317370865 -0.358183523448971 0.1297437 -0.991175 -0.02718108 174 176 166
3.90864575056017 1.77024682127388 -0.338895735859993 -0.9628387 -0.2699587 -0.007990346 174 175 165
3.94924507043758 1.83052270933987 -0.342833447250092 0.3487786 -0.8429772 0.4095644 173 173 164
3.91666415588019 1.76705714604002 -0.376057382468753 -0.2261031 -0.5882499 -0.7764273 213 209 204
3.99618955429135 1.78411258151049 -0.377927795722836 0.488906 0.1679588 -0.8560145 184 184 177
3.98120541555547 1.84364846626467 -0.328892977380869 -0.3748549 -0.8218318 -0.4290411 171 173 166
3.97115574469751 1.84282662424665 -0.35218238601396 0.4441228 -0.882004 -0.1575557 138 140 118
3.98737242311357 1.84810963253138 -0.357646022026346 0.2056965 -0.9769844 0.05648385 174 175 168
3.97489774784368 1.82705992165962 -0.374376100280156 -0.2181372 -0.01908346 -0.9757315 200 198 194
4.01080338259849 1.83724113140751 -0.345853231568685 -0.5407302 -0.8249732 -0.1644084 170 173 167
3.91058975699387 1.81664149157847 -0.351219361518757 -0.9830866 0.1702113 -0.0675925 171 172 159
3.93126676382972 1.76354823422922 -0.321182872461962 -0.2551555 -0.2644897 0.930022 146 149 133
3.96671680867826 1.75499938461823 -0.377342853849909 -0.1390429 -0.4987035 -0.8555477 214 212 206
3.90973077657396 1.77775173582044 -0.369507590477952 -0.9921087 0.07774214 0.09836903 173 177 165
3.97516915039857 1.81954153496112 -0.352731875377551 -0.9262012 0.3402498 0.1624235 194 192 191
3.9267395552544 1.8194181517693 -0.329602891954917 0.3976305 -0.6938805 -0.6003498 168 167 155
3.98437767083822 1.75216716743052 -0.343906506433369 0.8083693 -0.5849457 -0.06616369 183 180 173
3.94621115375918 1.8225178632422 -0.369811366569255 0.2015106 -0.9305838 0.3056261 170 170 163
3.94878653494655 1.83220724291959 -0.340595307356712 0.4330726 -0.8242686 0.3647321 155 154 142
3.98040668670889 1.77079926189789 -0.380335211266153 -0.06681989 -0.2393721 -0.9686259 197 194 192
3.98082275686277 1.77128291270349 -0.381310888417222 -0.05279661 -0.216665 -0.9748173 197 195 193
3.98249399945 1.74889002803857 -0.373214106683739 0.5058907 -0.6840087 -0.5255537 203 202 199
3.97730590208332 1.81508309862307 -0.356870266926693 -0.6856151 0.3925173 0.6130759 190 190 180
3.99386120289336 1.75371496195628 -0.369067338445837 0.6857139 -0.6281606 -0.3677101 198 197 192
3.95227476548739 1.79514888702389 -0.379406488665127 0.2333401 0.1944073 -0.9527634 200 197 191
3.95382151282683 1.75236607312643 -0.362128789610274 -0.7539814 -0.6282044 -0.1920191 189 189 189
3.94948739652249 1.82475813420603 -0.366885354349218 0.1982543 -0.9085809 0.367663 158 161 146
3.9472487351915 1.73012687492659 -0.37161975258501 -0.325902 -0.823135 -0.4650125 197 197 194
3.90895238233164 1.79664362515928 -0.336444414056332 -0.9924485 0.03556289 0.1173934 163 165 149
3.99876541110837 1.84346219475361 -0.344007501464088 -0.3094815 -0.7696388 -0.5584598 179 178 173
3.90909167871088 1.79593048596865 -0.358435091433886 -0.8979961 -0.3902262 -0.2032892 165 167 158
3.92561511555557 1.76023786950492 -0.322901801040356 -0.2379604 -0.4166863 0.8773525 156 158 147
3.98857277524634 1.84806554192685 -0.353513107310488 0.1039642 -0.9944971 0.01292002 180 181 173
3.90880900200789 1.76344434764146 -0.351518759202599 -0.9818748 -0.1387294 0.1291352 184 185 177
3.97026308243808 1.74327266432239 -0.32880647060113 0.6744937 -0.5512947 0.4910522 185 185 180
4.00200379923136 1.79588323429491 -0.379980324885691 0.4786233 0.009452005 -0.8779695 199 197 194
3.97558000337155 1.84365510103505 -0.339559110276723 0.2408071 -0.9673257 0.07932825 165 165 150
3.95587682437398 1.82274199669547 -0.376937560333463 0.1177807 -0.6522888 0.7487637 179 176 165
3.96468962896527 1.83645098948009 -0.364579038416579 0.7111092 -0.7028273 0.01890754 137 139 121
3.97329585417313 1.80650503114143 -0.380153995471557 -0.4282726 0.3491045 -0.8334919 193 183 184
3.95384201935248 1.81936245626293 -0.379853042234361 -0.02386963 -0.3903498 0.9203572 178 180 175
3.97465694960729 1.75366745686413 -0.376552340871571 -0.1443494 -0.3656442 -0.9194931 210 208 207
3.91022700788444 1.78590552139847 -0.328044817854459 -0.9472061 0.01419128 0.320311 165 168 156
3.99624767372909 1.7953088104275 -0.381608582134293 0.3798798 -0.1908042 -0.9051437 198 198 191
3.93036083610859 1.74659965310437 -0.374816382519038 -0.2921498 -0.5471987 -0.7843609 212 210 207
3.95865728816268 1.75576290950554 -0.377771552985922 0.2588447 -0.3481501 -0.9009944 210 209 203
3.95254372269721 1.81035930584967 -0.378555932117189 0.1692648 -0.4295612 -0.8870325 194 193 189
3.93086193866078 1.75933658936321 -0.342873380111292 0.7480554 -0.181586 0.63831 176 179 158
4.01890945189109 1.79514653089386 -0.346582208087114 0.967872 -0.1213964 0.2201969 172 171 164
3.98035647576594 1.74895950197134 -0.376300762397989 0.2638452 -0.5737915 -0.775338 205 204 203
3.91235318117846 1.78443767455818 -0.324408457748928 -0.8411871 -0.1820202 0.5091886 169 171 159
3.96994246064256 1.73293384449207 -0.345009968276315 0.5126732 -0.8583471 0.02016298 193 189 184
4.01270574151713 1.78833956045148 -0.357039895150804 -0.1771871 -0.5183933 -0.8365842 179 179 172
3.90878589391365 1.77707053309973 -0.360744134091075 -0.9896232 0.05993267 -0.1305907 171 173 159
3.90953302199325 1.80056370596726 -0.33565501865809 -0.9499754 0.2304312 0.2108277 178 178 170
3.97436920051973 1.74004014261274 -0.3373115196944 0.7447446 -0.5482678 0.3804706 187 188 183
3.98528312052126 1.84833321098746 -0.349329020613323 0.2095148 -0.974988 -0.07417525 169 169 157
3.97897949400532 1.84507074765982 -0.346449947410191 0.2988318 -0.9476026 -0.1129112 171 172 160
3.922073430171 1.74151174646305 -0.363665855171615 -0.4337048 -0.8997921 0.04769063 172 174 166
3.91677012953175 1.81635594963104 -0.368257224345353 -0.6970956 0.4936852 -0.5199352 174 176 162
3.99948336762132 1.77787782106226 -0.379690339513592 0.2825203 0.1217901 -0.9514985 190 189 181
3.91296268107937 1.81275002131782 -0.337499354897514 -0.8755416 0.3431162 0.3401444 168 170 154
3.96766389856739 1.76987242621541 -0.348724216245516 -0.3403758 -0.007535985 -0.9402593 155 151 129
4.01153630352408 1.7917244300411 -0.335208425130038 0.7872934 -0.3844624 0.482035 163 162 149
3.9371436261167 1.73613593189692 -0.373633684707299 -0.6042699 -0.602397 -0.5215129 203 203 199
3.96340148767597 1.76417323964945 -0.377350111265339 -0.09760558 -0.08482071 -0.9916041 221 219 217
3.93562858824885 1.73621271094612 -0.360390306250352 -0.4900948 -0.871396 0.02181897 150 153 143
3.92587386535677 1.77276394391783 -0.378396810093444 -0.2506202 0.1937026 -0.9485087 196 197 185
3.91361821815125 1.81671790084411 -0.361418564770038 -0.7214974 0.6261452 -0.2956072 161 162 150
3.9542021343168 1.74277849412704 -0.377841847930747 0.3687298 -0.1466742 -0.9178916 212 211 209
3.9348678352367 1.7516558586444 -0.326619825081185 -0.5830212 -0.7569235 0.2952171 162 165 155
3.96092246224516 1.83406138134099 -0.368190978629627 0.6130809 -0.7466434 0.2581773 159 159 143
4.01697613971497 1.79412417855059 -0.370845036296364 0.802159 -0.3836339 -0.4575653 179 180 174
3.97533902209343 1.84491784429411 -0.327224351646116 0.2401898 -0.9624316 -0.1266271 195 195 191
3.98923211597197 1.76286900373117 -0.340874135962467 0.8152115 -0.54464 0.1969707 180 182 174
3.92662295175086 1.81546728337607 -0.324163533712276 0.5186428 -0.634257 -0.5733478 161 163 148
4.01217587854964 1.7794662465764 -0.366855636790314 0.742625 -0.4191932 -0.5222884 177 177 167
3.95263708722539 1.8291809897413 -0.3605276174847 0.4521767 -0.8373702 0.3071604 179 180 172
3.91867010298738 1.74517983395136 -0.354590460155631 -0.287038 -0.9425099 0.1711265 180 181 173
4.01153256866448 1.83042295962562 -0.36424384120025 0.7494678 0.2862014 -0.5969814 212 211 212
3.91804242622327 1.75171219614106 -0.371825239063465 -0.7003731 -0.3552526 -0.6190906 172 176 163
4.02215663210908 1.81981324760544 -0.347026946039109 0.9569742 0.2609234 -0.1269621 167 168 161
3.96604068914694 1.77531209035544 -0.379063741518768 0.07969079 -0.1332703 -0.9878706 221 212 215
3.91316110773678 1.78676482628152 -0.321159402345699 -0.7275171 -0.1306189 0.6735411 158 161 150
3.93221853738326 1.82217350765672 -0.356730558860513 0.07628344 -0.9813859 0.1762452 170 169 160
3.90939987092528 1.76452428170634 -0.350562056717 -0.9810933 -0.1551019 0.1157557 182 183 176
3.98304303380073 1.79330184961961 -0.383214021398457 -0.07011034 0.02030241 -0.9973326 216 214 211
3.95304789446747 1.751283790279 -0.376903159866047 0.6983795 -0.1491368 -0.7000174 203 203 201
3.99476034432166 1.76144435028021 -0.352598199820931 0.626334 -0.778796 -0.03438716 174 174 159
3.96925942191864 1.84161714563912 -0.339216309878921 0.4286079 -0.8940504 0.1302661 161 160 146
4.02158007047786 1.80439614362023 -0.339082315208375 0.850262 -0.3927576 0.3504224 170 167 162
4.00122855903115 1.81845206271549 -0.37644035682032 0.6102083 -0.03643893 -0.7914026 191 192 188
3.98541285824626 1.84674176986168 -0.343507850386277 -0.02398871 -0.9611855 -0.274858 174 174 167
3.93222631275247 1.80056966085945 -0.380733354511617 0.06615414 -0.3147438 -0.9468685 204 199 199
4.01204639986245 1.7890260671566 -0.3739911691425 0.7409945 -0.336192 -0.5812935 187 186 178
3.94563334599123 1.73720330473573 -0.336572098993228 -0.5253774 -0.7891374 0.3181837 145 148 133
3.97862107857991 1.80203426176865 -0.383430576582557 -0.1418172 0.2092541 -0.9675229 192 193 187
3.90995745907461 1.76544484079217 -0.344403494861386 -0.959953 -0.2349911 0.1525433 165 167 158
3.98685899260419 1.75545311926458 -0.350836683636193 0.5982094 -0.8007741 -0.03010543 175 175 164
3.93221977105855 1.77126697117831 -0.319110131630963 -0.1886525 0.001185349 0.9820432 150 154 135
4.00341920332625 1.79226245715851 -0.35445047200437 -0.6441681 -0.6863547 -0.3375867 179 178 169
3.95241220378861 1.82958029096812 -0.359706452948436 0.4896066 -0.8555097 0.1684888 166 167 154
3.94448448930308 1.73808836579599 -0.342549846017158 -0.5442423 -0.8389078 0.005835629 159 162 151
3.90925509110829 1.76170815484752 -0.348431797061466 -0.9778457 -0.07440446 0.1956574 162 166 154
3.96738601354919 1.84001783426892 -0.332583958604687 0.5820803 -0.80357 -0.124329 141 143 123
3.9124672671773 1.79560379478137 -0.373076386575938 -0.8185096 0.3142698 -0.4809123 172 174 163
3.98433188112491 1.75338805905693 -0.346822402804936 0.7822354 -0.6229044 -0.009895838 178 178 168
3.95062903649175 1.80549214627846 -0.377199391045569 0.3518811 -0.06712436 -0.9336348 182 181 172
3.90952213710093 1.77635399932873 -0.362349026969948 -0.9775243 -0.0287976 -0.2088465 177 180 169
3.962042191039 1.78400743825685 -0.368061774749059 -0.1993413 0.3518435 -0.9145869 208 198 206
3.94584569511049 1.76905871369346 -0.382872748937035 0.1313876 -0.1103489 -0.9851702 218 214 213
3.90838482770517 1.78471902338496 -0.3357408942788 -0.9689818 0.09610833 0.2276785 156 157 142
3.95223305182121 1.75233012782357 -0.37998049675693 0.5309448 -0.08417188 -0.8432157 209 206 204
4.01635790944649 1.83010212306553 -0.34514560816699 0.8952994 0.4273468 0.1257522 165 167 165
4.01176447972574 1.81019250582569 -0.369065912704437 0.499131 0.4209915 -0.7573866 179 180 178
3.94818995138769 1.83501890539719 -0.336120759142677 0.4350195 -0.8883869 0.1467198 178 175 165
3.93767128914096 1.8220012411406 -0.324431747093579 0.3388962 -0.7999681 -0.4951771 148 149 130
3.95349820602382 1.73494816937633 -0.338269523341405 -0.2611145 -0.9437457 0.2028874 166 169 163
3.92828970736427 1.75471364305821 -0.378174163087461 -0.2265726 -0.007817182 -0.9739629 195 193 185
3.97302597709267 1.80273062411123 -0.381296728611531 -0.3910934 0.3642089 -0.8452205 215 179 202
3.92826087559892 1.7576673023928 -0.36435524841523 0.4132351 0.3143888 -0.8546324 201 199 198
3.95931034867283 1.77322928680232 -0.380257301020198 0.4167891 -0.1292535 -0.8997668 222 205 215
3.98054995041886 1.79695697560945 -0.38343819031639 -0.06335579 -0.05578775 -0.9964305 216 215 210
3.96271309300469 1.78545465790349 -0.372244858431262 -0.9341519 0.2916284 0.2057014 206 197 200
3.92919872310926 1.82325089459347 -0.351667833293045 0.04659005 -0.9470785 0.3176031 172 173 165
3.97682864244444 1.74135217552248 -0.342940751913068 0.6951091 -0.6898153 0.2024308 184 183 176
3.99025359609099 1.81848673717806 -0.379769242160828 -0.1138806 0.2350491 -0.9652891 192 191 185
3.94403871207566 1.82195721910493 -0.370176228141729 0.1964767 -0.9120902 0.359845 170 170 163
3.91250913855738 1.77927959748148 -0.325272769675569 -0.8028463 0.0564552 0.5935071 146 147 129
3.95228670547232 1.83632925089218 -0.335514140118224 0.199231 -0.9774509 0.0699767 170 170 159
4.00415122079375 1.77019438437372 -0.351135868405465 0.7447749 -0.6650516 -0.05492425 175 176 167
3.91939678977979 1.801828733682 -0.380449677806827 -0.632881 0.4207675 -0.6499357 178 179 172
3.94612320992424 1.83923319677279 -0.368262978494572 0.3554457 -0.6353009 -0.6856027 187 185 177
3.91034396323861 1.80421463147109 -0.339198401409179 -0.9618205 0.2218903 0.1602064 170 172 158
3.90929962109365 1.77530882937388 -0.358191001398574 -0.9897068 0.007472092 -0.1429149 165 167 153
3.9512445772302 1.83102863855208 -0.326506387369899 0.4786142 -0.7029025 -0.5261716 155 158 140
3.99409403180136 1.82129333224922 -0.379927592773967 0.0967127 0.1240695 -0.9875492 209 208 205
3.91049874389429 1.78164926466703 -0.365690491629723 -0.9942685 0.06355748 0.08596926 148 151 134
3.97954076817302 1.82500893908562 -0.356045288096884 -0.8584756 0.2640588 0.4396505 187 184 179
3.9414789928777 1.74610580217926 -0.381144983345928 -0.2207483 -0.2755189 -0.9356065 192 190 180
3.96074580865452 1.72826496880564 -0.359214359740378 0.3248582 -0.9363946 0.1327868 201 199 193
3.95001667160797 1.72815245012354 -0.362669312227501 -0.3271417 -0.9076416 0.2629922 159 160 151
4.00489890155326 1.77137301411198 -0.358632541363674 0.6629722 -0.7482318 0.02484347 172 172 161
3.96617362548679 1.83964376742419 -0.347050256973441 0.4456669 -0.8947643 0.02789017 165 166 153
4.00944165230955 1.8386445836341 -0.343857650185227 -0.5247836 -0.819141 -0.2315387 179 179 175
3.91706046323879 1.817864124426 -0.368743641021381 -0.6033571 0.6217512 -0.4993851 188 187 179
3.92412752697829 1.76557092651921 -0.377901408475415 -0.2582726 -0.2244739 -0.9396312 198 197 188
3.91260293475506 1.80119141761889 -0.330121138173748 -0.9229978 0.2311859 0.3076168 159 162 143
3.91112174820029 1.78797423981111 -0.363033545529826 -0.9889991 0.07694013 0.1263366 171 173 164
3.94340462718479 1.76277997931692 -0.32098839118501 -0.3269205 -0.2592831 0.9087878 145 146 127
3.93034059790114 1.82176388007388 -0.330918395264735 0.372847 -0.6952282 -0.6145266 156 155 139
3.98215713463723 1.7478419559558 -0.371840539992501 0.6281075 -0.7038521 -0.3317727 195 194 191
4.02228073783999 1.81842114980348 -0.343567251122395 0.9788941 0.201669 0.03310793 176 176 173
3.93411719843194 1.73845023196978 -0.36406699126267 -0.4477397 -0.8928437 0.04857279 168 171 164
4.00120943754056 1.80749375529589 -0.376531934583388 0.7262141 0.1117951 -0.6783178 194 193 190
3.99814214909772 1.77111580629388 -0.334945048852418 0.6726214 -0.6387665 0.3735744 184 181 176
3.92596346750283 1.79491590006179 -0.381485094888309 0.245148 -0.2259301 -0.9427927 203 202 198
3.97887719282677 1.81895151284397 -0.365050854487818 0.111712 0.7232421 -0.6814993 197 195 190
3.97027209415767 1.84225020616094 -0.331318495074182 0.5828812 -0.8080956 -0.08503608 153 153 134
3.9877256712888 1.84139255342343 -0.369744921880595 0.2507618 0.4380373 -0.8632739 211 210 204
3.96052901757911 1.74694878155668 -0.374141575862047 0.1526446 0.1749966 -0.9726643 206 204 202
3.93575936290886 1.75194387697748 -0.324604569609276 -0.5938748 -0.7427715 0.3091977 173 176 172
3.91250566750758 1.76270844785001 -0.326383318897873 -0.6007259 -0.4438233 0.664943 143 146 131
3.95364549752041 1.74129481420131 -0.3233462255452 -0.170164 -0.8444676 0.5078569 154 157 145
3.9174342016991 1.77867262243279 -0.377675971400518 -0.06404893 0.04390977 -0.9969802 201 200 194
3.93992835972439 1.82590992061639 -0.349961210825274 0.1378761 -0.8924842 0.4294904 165 167 157
3.95442142054051 1.83140239420159 -0.324066376735986 0.403987 -0.7898576 -0.4614321 146 147 127
3.94210847912746 1.82571560710351 -0.363322858558571 0.3124094 -0.9446039 0.1006176 165 165 154
3.9587474238043 1.83249846510319 -0.324478487092842 0.272358 -0.8399543 -0.469359 144 148 132
3.91006890098847 1.77299836781579 -0.363307049949772 -0.9796179 -0.1291676 -0.1538326 166 168 156
3.90977692084271 1.78399112162423 -0.368945621164643 -0.9964443 0.0770879 -0.0340025 158 161 146
4.01082172634248 1.77579883717703 -0.355413233778466 0.4776558 -0.8771334 0.04981928 179 179 173
4.01593810242846 1.83485096828376 -0.353517843354814 0.9076228 0.3855243 -0.1661078 189 188 185
4.00483596150609 1.77105340457101 -0.360020584782466 0.6623266 -0.7454451 0.07506767 171 171 161
3.91193520516741 1.74708311118143 -0.352644612905405 -0.5252637 -0.7728373 0.3561185 186 186 180
3.96083114016794 1.78618548995128 -0.367202086528852 -0.05753677 0.1000445 -0.993318 222 208 220
3.98015549123494 1.8466411598269 -0.351233027734536 0.3045724 -0.9524736 0.00544325 141 141 123
3.91698565397 1.80864944163969 -0.326988802106856 -0.7815564 0.3211232 0.534836 159 160 145
4.01592811771828 1.80583357763353 -0.367385853091505 0.8110207 0.415405 -0.4119272 189 190 182
3.98299232223228 1.8242281842697 -0.376301913140418 -0.2717091 0.1777085 -0.9458297 190 188 180
3.96707463513957 1.82012753491955 -0.375043045364777 0.4818497 0.2691847 -0.8338827 188 188 182
3.9624373920548 1.82719086562727 -0.37349200254491 0.1594206 0.5146536 -0.8424469 182 182 172
3.9799266068897 1.8292943839375 -0.375453462024875 -0.1402876 0.09954075 -0.9850944 186 184 173
3.92336274945057 1.74298219599437 -0.355907118473491 -0.3978249 -0.9149737 0.06751638 163 165 158
3.94432684671697 1.83420790790327 -0.373369899910942 -0.9538211 -0.08572714 -0.2878823 190 187 180
3.98423918463479 1.84580241185735 -0.364625073983465 0.1881843 -0.903858 0.3842231 166 168 150
3.94572473963077 1.82838910145546 -0.329042227022988 0.4576054 -0.7353368 -0.499877 151 151 132
3.95986876452212 1.79544263398817 -0.377754042075957 -0.1537784 0.3616352 -0.9195499 228 194 216
4.01621718798713 1.79342317586437 -0.370359930276931 0.7936078 -0.4076007 -0.451717 179 179 173
3.94052314812335 1.79759749793927 -0.38117389705297 -0.1830763 -0.200174 -0.9625037 203 198 198
4.01650848639072 1.78434050032535 -0.366208628762097 0.7473131 -0.3365919 -0.5729128 182 181 172
3.92985118023613 1.74867088383035 -0.376576559346472 -0.3101315 -0.5542488 -0.7724161 207 204 202
3.91011265909178 1.76374934688616 -0.362968100486618 -0.9299899 -0.06426376 -0.361924 179 179 170
3.96672517380241 1.84032659167994 -0.349313694752109 0.5253148 -0.8507439 -0.0167082 162 162 152
3.98505989058966 1.78679412898506 -0.384410310283991 0.08512341 -0.1444131 -0.9858493 208 206 205
3.90769801919469 1.77676485221607 -0.339069799461624 -0.9917272 -0.01674008 0.1272677 167 169 156
3.98829737961672 1.83571600873634 -0.373008661959819 0.09064288 0.5568925 -0.8256238 208 207 197
3.95078947436327 1.72950597702471 -0.360316732880322 -0.3913601 -0.8041297 0.4474514 150 153 138
3.90758211744593 1.77509969536357 -0.330629163065931 -0.952395 0.1868514 0.2408951 168 169 156
3.96126812536491 1.74095309424329 -0.322792131094271 0.07658909 -0.8659691 0.494198 147 150 137
3.91815630227765 1.8116386279585 -0.325931501414844 0.5856636 -0.5601208 -0.5858863 166 169 153
3.92493974186774 1.74156635049021 -0.370581081607826 -0.5751666 -0.51767 -0.6334044 165 168 154
3.92400805295033 1.74745846625921 -0.373939355171149 -0.5685322 -0.5883833 -0.5749576 179 181 174
3.95002072377395 1.83010379936058 -0.326716260478342 0.5235291 -0.6669703 -0.5301583 158 160 144
4.00638448778088 1.7917381683857 -0.376273711251979 0.2510756 -0.1643296 -0.9539166 185 184 180
3.9522020475387 1.83557003270537 -0.336313447100595 0.2033013 -0.9545698 0.2178647 177 178 169
3.94554918278786 1.78074845430893 -0.37997930684816 -0.02203932 0.2426727 -0.9698579 194 191 188
3.93704132167055 1.74415063106839 -0.337617937061054 -0.5967572 -0.7598476 0.2579 160 163 153
3.93527521518976 1.75311925729599 -0.322020716801441 -0.5308176 -0.7904188 0.3057301 163 165 160
4.01567853724242 1.7789938137373 -0.362670718459979 0.7608802 -0.513628 -0.3965445 180 179 171
3.96029296168175 1.8351633633439 -0.327999741230164 0.3257533 -0.8823749 -0.3395575 157 157 140
3.95334637900951 1.79193474743082 -0.37971796972697 0.07002039 0.1530433 -0.9857357 204 196 195
4.00504928431434 1.84177560710646 -0.344500365261517 -0.4908388 -0.8273901 -0.2729522 173 174 169
3.9341672570274 1.74999894365707 -0.333232055689144 -0.5404035 -0.7091047 0.452918 152 154 138
3.92456491933249 1.74502125709225 -0.370879763447095 -0.6234613 -0.440547 -0.6459213 160 164 151
4.012235056001 1.82580770149493 -0.365603796987294 0.7436556 0.1900979 -0.6409674 191 191 188
4.01722860246283 1.83115769453574 -0.341790388055777 0.8746403 0.4032114 0.2691189 175 176 171
3.92159150388164 1.75892120115667 -0.325263073192698 -0.2943521 -0.5980303 0.745464 160 162 150
3.96637382747466 1.8176574632753 -0.376787645634054 0.4008028 0.19246 -0.8957211 194 193 186
3.93933342685696 1.7489316523168 -0.324201482087597 -0.5338213 -0.711383 0.4571313 150 153 138
3.94950019950219 1.81713373774291 -0.380593501984345 -0.02564644 0.06932288 -0.9972646 194 190 187
3.95504951715177 1.83120760611554 -0.353820534071489 0.4864615 -0.86522 0.1214473 167 168 157
3.98710942098566 1.8022157498067 -0.369308743015719 0.614655 -0.7884274 0.02411457 187 186 180
4.01359681283871 1.78915303912835 -0.369768200844235 0.7685999 -0.3118432 -0.5585769 179 179 168
3.92216223634191 1.77927458915249 -0.320369076873077 -0.297226 -0.01589928 0.9546747 148 151 136
3.94885957557524 1.81968748305426 -0.379441728876246 0.05953604 -0.5105265 0.8577985 190 188 185
4.02244596983716 1.81970067615862 -0.343658313477828 0.9584982 0.275888 0.0718824 179 179 174
3.9365176766437 1.7364855359096 -0.355567763905665 -0.2960343 -0.8867099 0.3551186 148 151 140
3.95440261033388 1.8030568663579 -0.375766344780939 0.2417243 0.09087671 -0.9660801 221 194 210
4.01809999312103 1.79202118694558 -0.365762932076051 0.8709448 -0.2695763 -0.4108331 183 184 179
3.98335188504144 1.77922873005673 -0.381835855450829 0.1494473 -0.308875 -0.9392879 200 199 197
3.94636237185442 1.83441423705234 -0.33838894439192 0.4971963 -0.8043108 0.3253921 158 158 145
3.92068978759509 1.76348257428335 -0.322606480477597 -0.2714418 -0.3540476 0.894969 152 153 141
4.00087584945603 1.80469659443364 -0.377154638114672 0.6713002 0.1657101 -0.7224239 189 189 182
3.98472967792404 1.74896135112889 -0.370598037510763 0.5216439 -0.7984021 -0.3007354 199 198 195
3.90810518860451 1.78537327492742 -0.344432259463253 -0.9750229 0.1478251 -0.1657654 164 166 154
3.9104266663103 1.75018054197306 -0.360695774353605 -0.8400937 -0.3559387 -0.4093291 204 202 200
3.91714347462213 1.81529917419676 -0.370721034575702 -0.6513997 0.3570834 -0.6694548 195 194 188
3.97572577193656 1.75504792887416 -0.354041145877686 -0.8181977 -0.5380857 0.2025246 199 202 202
3.97651502250185 1.74045198172105 -0.36670272373228 0.7050207 -0.6829505 -0.1911135 194 193 187
3.94796053501688 1.82741490107135 -0.357194207697603 0.5401042 -0.8415898 -0.003752995 134 135 114
3.98716100269449 1.76475325015769 -0.380594466262214 -0.04413937 -0.288282 -0.9565277 213 211 210
3.98733940308624 1.84777861010373 -0.361836833184264 0.1352885 -0.9410937 0.3099027 182 181 173
4.00318252289747 1.83521737105079 -0.368918879318669 0.4985098 0.2959718 -0.8147936 209 205 204
3.96957931169439 1.78962009377978 -0.358553413188533 -0.938359 0.3398114 -0.0633288 179 176 167
3.96443242792428 1.7389759441804 -0.327929623933374 0.2446377 -0.8577757 0.4520767 172 173 165
3.97094480417979 1.84466007564149 -0.359897386039665 0.5320885 -0.8458268 0.0381946 144 145 127
3.9848534676041 1.82403002692497 -0.366879081831331 0.8221408 0.5603445 -0.1004913 199 199 194
3.91108912099505 1.80562425541831 -0.35436931481131 -0.9468665 0.2633039 -0.1847022 163 165 152
3.9943153058781 1.82754307227618 -0.376109491079599 0.1703913 0.4268611 -0.8881196 195 194 191
3.98582243935451 1.76708233953639 -0.38123470803662 -0.09803768 -0.1263885 -0.9871244 210 207 204
3.97890865290982 1.74310717983487 -0.367436735756036 0.7146636 -0.6725379 -0.1922208 191 189 184
3.95217947553016 1.7343025783615 -0.340940765706843 -0.3505932 -0.9363216 0.01965289 150 153 141
3.90884887034797 1.76406993580387 -0.35376879226796 -0.9900839 -0.1342471 0.04137187 166 170 158
3.91256244748002 1.80349785448584 -0.334383296195654 -0.8807293 0.3140057 0.3545649 163 165 148
3.98674125640847 1.78612761753005 -0.365193934668035 -0.4216414 0.3823409 -0.8222129 169 168 150
3.91189798092291 1.78495635708424 -0.373978838700926 -0.7905848 0.1352085 -0.5972389 199 198 194
3.97966255870289 1.80583578361333 -0.382626422127325 -0.1514847 0.3048589 -0.9402731 190 189 185
3.97199388502647 1.73840759955165 -0.372304568500387 0.4447578 -0.650183 -0.6159973 195 194 189
3.96057073781767 1.7786200655477 -0.3477103835956 -0.2220553 -0.6477745 0.7287521 145 153 129
4.01917198451253 1.81527216716135 -0.358093296164925 0.914431 0.1971407 -0.353485 182 183 176
3.96301308904961 1.73084554988459 -0.371034584812771 0.5540689 -0.6033701 -0.5735436 199 198 194
3.98228334739603 1.83936471616441 -0.371693437840614 0.1096691 0.4917319 -0.8638127 211 208 205
3.91278039401134 1.7654385049581 -0.368551973989256 -0.9213427 -0.1769383 -0.346151 171 172 159
3.9720028429946 1.82509859936729 -0.373001648620591 -0.120172 0.02922575 -0.9923228 197 196 191
3.96366205953465 1.835958418367 -0.357070973527063 0.7667319 -0.6298698 0.1240414 149 150 132
3.92342847146814 1.74866743553196 -0.373165401050801 -0.5447865 -0.6208452 -0.5637012 178 180 175
3.9528459392061 1.74342502981272 -0.321367185193139 -0.2520141 -0.7562301 0.6038252 152 155 143
3.93742769675013 1.76787657138317 -0.316449097881886 -0.2417962 -0.08386609 0.966696 133 136 116
3.96115262417724 1.83308283197197 -0.363114570787818 0.6098813 -0.7923635 0.01431864 160 162 149
3.98375256230967 1.776504857023 -0.380841763259894 0.2824339 -0.1668515 -0.9446648 194 193 189
3.93749243196371 1.74845151102953 -0.330717770610027 -0.688341 -0.6357048 0.3493796 156 158 146
3.94836055739195 1.73965119257366 -0.331036882061174 -0.380913 -0.8500271 0.3638121 158 162 150
3.99515565472494 1.76117872270397 -0.375922950330911 0.6265211 -0.4673155 -0.6237689 199 198 193
3.91080859120281 1.79221502975043 -0.367182656827315 -0.9973383 0.01630543 0.07106677 164 166 156
3.94035898283037 1.82407185813517 -0.357122304386462 0.1967002 -0.9800584 0.02818759 147 148 132
4.01544446385406 1.82942907565251 -0.354217624015696 0.9122823 0.250912 -0.3237036 173 175 172
3.96667155755148 1.83990314050095 -0.353653729063577 0.6921383 -0.718528 0.06827855 155 156 143
3.99259020137978 1.78559113300311 -0.379623844131566 0.5895429 -0.08639588 -0.8031033 181 183 175
3.94329331558306 1.82201698022937 -0.373180165066086 0.3296062 -0.9045675 0.2704024 153 155 136
3.99741559618991 1.76622133258803 -0.342807931939084 0.6110287 -0.6926022 0.3833355 181 181 175
3.91383051590842 1.80409349274382 -0.329095064067616 -0.8973233 0.3433691 0.2773239 162 161 144
3.90800549782394 1.78811099680793 -0.344212758132705 -0.9802122 0.1269923 -0.1518459 168 171 156
3.99034213791248 1.83622381248122 -0.333230872675604 -0.4129386 -0.7039433 -0.5778803 159 160 149
3.99595460182006 1.75766772108665 -0.363376872192167 0.8295676 -0.5170708 0.2108445 178 176 165
4.00908823905687 1.77446879429284 -0.344736991064317 0.6548285 -0.7243156 0.2157929 173 172 162
3.99110173474322 1.75617949264361 -0.376312505871487 0.5103707 -0.5713227 -0.642738 202 200 197
3.96633046190547 1.73999851549682 -0.374130735848782 0.1732956 -0.1423109 -0.9745339 214 212 210
4.02247567467828 1.81265165246559 -0.336673287794189 0.9510613 0.144889 0.2729279 168 167 156
3.99104612481139 1.76443857865839 -0.335304403471713 0.7670134 -0.5799547 0.2744866 179 179 172
3.9717287718852 1.84219335250923 -0.346345712962612 0.4647987 -0.8833861 -0.05992655 164 164 154
3.9105241122826 1.79538763214027 -0.364979161558247 -0.9974846 0.0346156 -0.06185656 147 151 133
3.90927163002108 1.78928423382797 -0.336230829139588 -0.9717559 0.1568274 0.1763393 165 167 153
3.95941655724972 1.75694163183862 -0.376676230947191 0.1705171 -0.2534754 -0.9521944 208 207 206
3.96304807059723 1.75267324165555 -0.374013739379787 -0.002823569 -0.2842151 -0.9587564 209 206 203
3.90843935202335 1.76914790247679 -0.336965326577753 -0.9613603 -0.2451575 -0.1252361 164 166 151
3.94107445383919 1.8001948480498 -0.382345005329474 -0.07831369 -0.08738896 -0.9930912 202 196 194
3.96700188012503 1.74989104062611 -0.373859326860138 -0.01633876 -0.2008143 -0.979493 199 198 195
3.95345148050659 1.8140675378194 -0.380315618363931 0.1133606 -0.2585087 -0.9593345 202 200 198
4.01997750133198 1.82380468679929 -0.339607706822036 0.8262792 0.4588482 0.3266819 179 176 171
3.97063562208499 1.79372118501973 -0.382455809582186 -0.2715279 -0.09303227 -0.9579236 212 195 201
3.94067385668513 1.7445342316769 -0.380061250964344 -0.3633234 -0.3414061 -0.8668552 201 199 194
3.91033601848926 1.80500352457792 -0.338058355565889 -0.9568781 0.2167139 0.193441 168 171 157
3.99307850678977 1.76647475348701 -0.380383051241916 0.4200573 -0.2662514 -0.867561 201 201 198
3.95032701637379 1.72917004747442 -0.361536628963025 -0.3389733 -0.8897221 0.3057641 178 179 173
4.0047335627975 1.84050253137856 -0.366472607347167 0.3288276 0.622321 -0.7103443 205 203 201
3.96829329009746 1.74064540958717 -0.328904886134972 0.6037185 -0.6200914 0.5010097 180 180 173
4.00563247963236 1.8290213135986 -0.369020211761122 0.533592 0.3242262 -0.7811254 190 190 184
3.93149796399979 1.76809248726494 -0.322236381747088 -0.323444 -0.2147976 0.9215454 149 150 117
3.9092908807606 1.79225023650051 -0.33751321662639 -0.9872413 0.102764 0.1216318 159 161 145
3.93043694299757 1.75584463844944 -0.322730559159475 -0.4554156 -0.7800835 0.4290296 150 151 135
3.90764124809193 1.77164204925834 -0.334006930938865 -0.9793063 -0.1054016 -0.1727707 165 165 153
3.9577335649906 1.79375073745284 -0.366693988945287 -0.5854601 0.3401007 0.735913 201 183 187
3.99507068143651 1.75708296998847 -0.371481512065781 0.7739875 -0.5180444 -0.3641064 196 195 190
3.90820940749344 1.77113342497552 -0.340391876753333 -0.9631634 -0.2683812 0.01696336 170 172 158
4.00233713159508 1.81472023160733 -0.355614358923274 -0.9113892 -0.05304664 -0.4081125 177 178 170
3.91956652145014 1.79499392864074 -0.381187809663496 -0.3455087 -0.1796873 -0.9210517 200 201 197
3.98020337510836 1.81653525551465 -0.377755986669128 -0.2965056 0.4457291 -0.844636 186 185 177
3.92210568380897 1.8101574267722 -0.322368932881028 0.4413161 -0.5434625 -0.7140649 155 157 142
3.98471335154338 1.83645907541541 -0.325803530968496 -0.4432426 -0.5497218 -0.708055 150 153 145
4.00251984561371 1.84442334275416 -0.351039204844005 -0.4793717 -0.8732877 -0.08701384 190 190 188
3.93045376527388 1.74954804327319 -0.378073822673446 -0.2927276 -0.4594397 -0.8385856 206 202 198
3.918396919555 1.78880027165684 -0.376570743481385 -0.5321161 -0.4014711 -0.7454351 210 210 211
3.96375813478882 1.83857858434687 -0.341440394845193 0.4419758 -0.8955426 0.05158449 145 146 125
3.97183905779104 1.78107934325359 -0.378555162605146 -0.1371191 -0.1075174 -0.9847022 216 214 211
3.94614586922726 1.82189091926467 -0.375826298469693 0.2325503 -0.8932437 0.3847545 168 169 162
3.91078052947196 1.75249972495262 -0.345361681810316 -0.702282 -0.6120719 0.3635491 148 150 133
3.98830757550486 1.80851105061889 -0.349734195428325 -0.2147961 0.2279289 -0.94969 190 190 185
3.99796037190829 1.80523114890913 -0.379590475715138 0.5191871 0.086245 -0.8502979 194 193 189
3.9788950803857 1.84561187867011 -0.333679911487714 0.06069444 -0.9969738 0.04857512 178 176 167
3.9112669351501 1.78902496962701 -0.322514128788002 -0.921618 0.08408543 0.3788797 148 151 138
3.93035216162942 1.78430064455887 -0.317477360532123 -0.1327803 -0.1002465 0.9860629 102 105 77
3.97350290897218 1.84360627908674 -0.337537188210212 0.3052034 -0.9358454 0.1761937 145 146 123
3.96901154193685 1.79215348336226 -0.381998812685526 -0.2746694 -0.06186361 -0.9595466 226 190 212
3.93987492149336 1.74557240708699 -0.328394958419263 -0.6427675 -0.6682518 0.3745522 167 168 158
3.95413302410705 1.76336829574877 -0.378436215213542 0.2255686 -0.241425 -0.9438394 215 212 210
3.96506347689062 1.83836233764584 -0.35526615010046 0.7602286 -0.6403732 0.1094288 143 145 126
3.99834081351656 1.76451522432542 -0.3512484741667 0.645218 -0.7639285 -0.01034142 182 181 173
4.00573713461162 1.77144764643073 -0.348526415144424 0.6971821 -0.7152985 0.04780333 177 176 168
3.97002457528516 1.75432046055306 -0.376310092262192 -0.09850127 -0.5009796 -0.8598354 198 198 197
3.94515286709322 1.82224799600439 -0.321179577245372 0.2136189 -0.6694136 -0.7115141 140 144 127
3.90777772403154 1.77719449045095 -0.346525708385637 -0.9800466 0.1174141 -0.1603826 167 169 156
3.91151217212473 1.80545065209924 -0.336703249762467 -0.9209241 0.2815101 0.2695383 167 169 157
3.97756462754708 1.81861946132117 -0.375191784669504 -0.4013444 0.3471934 -0.8475727 182 181 171
4.00202795233867 1.83220027014171 -0.37073614729685 0.5093962 0.3153951 -0.8006507 191 190 187
4.00157613253312 1.84250476161445 -0.362891559094759 0.1927965 0.8516121 -0.4874282 206 204 203
3.93816856034623 1.74940535497864 -0.324306975330821 -0.5608004 -0.7121872 0.4222467 159 162 149
3.97584852861728 1.78148020677855 -0.38152433880919 -0.3234134 -0.1796709 -0.9290437 209 206 205
3.93390292903062 1.80016984257809 -0.380339085059479 -0.04458299 -0.2623354 -0.9639463 199 199 196
3.94244176631259 1.73513215900367 -0.357710100409647 -0.2089555 -0.8589159 0.467548 154 157 145
3.9118834161777 1.7829049251368 -0.325122764483241 -0.8430614 -0.1561476 0.5146507 163 165 152
3.9607732729509 1.73108628861803 -0.349830880503518 -0.09653915 -0.9895722 0.1068971 183 183 178
4.00511255987074 1.7709816706717 -0.346679700864205 0.679611 -0.7098541 0.1850302 178 178 172
4.01724079603288 1.80711179516248 -0.362003596943405 0.8826352 0.1750024 -0.4362674 179 180 172
4.01939327202484 1.78900362427429 -0.360654627190455 0.9443169 -0.2342249 -0.2310936 173 173 163
3.96833226370393 1.84162256323063 -0.335922480646521 0.5508844 -0.8343852 0.01810523 157 157 140
3.97817221519335 1.83452042216656 -0.36489972327734 0.8179415 0.5305865 0.2223726 201 198 194
3.94432484527951 1.81797648676749 -0.380254160223792 -0.259312 0.2766755 -0.925315 166 165 154
3.91259749696003 1.74467513463966 -0.355555794290807 -0.4247985 -0.880249 0.2114427 178 181 174
3.95815372865445 1.7863527925062 -0.380961766475011 -0.02279429 -0.0247043 -0.9994349 235 204 224
3.91033576073105 1.74860924135802 -0.35295955521264 -0.8445973 -0.4757722 0.2455526 175 176 168
3.93065719671645 1.7819934280223 -0.379910288240369 -0.38451 -0.0781498 -0.9198068 197 195 190
3.9239775623075 1.81049018576767 -0.375694708137299 -0.3636536 0.4864303 -0.7944443 176 177 167
3.95944703089476 1.7660818474934 -0.376953399112538 0.3029177 -0.3345771 -0.8923559 215 211 209
3.93409043445698 1.80580217223971 -0.37249415974464 0.3946248 0.3402641 -0.8535172 194 193 185
3.95637023683505 1.83565013720813 -0.342466698991364 0.3795438 -0.9008926 0.2105685 152 151 133
3.96691552972157 1.83238690795588 -0.371660527049803 -0.2607419 0.2852647 -0.9223002 191 190 183
3.99722309620259 1.84683643853252 -0.357988608421817 -0.429743 -0.8741847 0.2261019 190 191 187
3.97764619379812 1.79243219060487 -0.382710118192373 -0.1405044 -0.05059223 -0.9887866 208 207 203
3.94403916233633 1.75336105202464 -0.318892131131987 -0.2998192 -0.2900828 0.9088237 150 152 143
