ply
format ascii 1.0
comment File exported by Rhinoceros Version 7.0
element vertex 496
property float x
property float y
property float z
property float nx
property float ny
property float nz
property uchar red
property uchar green
property uchar blue
end_header
4.27499876039655 1.95130819769421 -0.341413736343384 -0.9929451 0.1185614 -0.001800991 180 182 180
4.2042715312782 1.95770556421795 -0.371213912963867 0.3620162 -0.8526856 0.3766585 132 140 121
4.21428642290265 1.90550333948651 -0.318018406629562 -0.2239451 0.1764446 -0.9584967 200 199 195
4.23129180687101 1.96522230597057 -0.322688579559326 0.03281961 -0.1609633 -0.9864146 180 182 184
4.2565285326782 1.92105586023846 -0.333496689796448 -0.1382565 0.8781512 -0.457969 200 199 199
4.16786632555158 1.89846105070629 -0.352066189050674 0.7015115 0.6799709 0.2133569 178 178 173
4.21496841924817 1.96419937105694 -0.358938038349152 0.08580386 -0.8716131 -0.4826265 131 138 133
4.18129870908887 1.89347953291454 -0.328070372343063 0.4176979 0.8402218 -0.3457686 154 158 149
4.2680750252548 1.93561787100353 -0.325695276260376 -0.7772927 0.4743389 -0.4133021 200 201 197
4.18414524810941 1.88609618635693 -0.375439316034317 0.8027247 0.5927887 0.06507389 148 152 138
4.21028045433194 1.90100521536389 -0.31788495182991 -0.1673969 0.2572063 -0.9517474 189 191 188
4.20327076929242 1.88796431513348 -0.380910098552704 -0.291926 0.9379273 0.1872739 180 181 177
4.2409657003227 1.92517001123943 -0.32248842716217 -0.3123861 0.312167 -0.8971993 185 188 185
4.26064715402753 1.93161935301342 -0.324489921331406 -0.2434302 0.6397522 -0.7290122 191 192 190
4.22264084833295 1.96584505529919 -0.360895037651062 0.3633255 -0.8816913 -0.3010232 136 144 134
4.22639927881391 1.96538919897595 -0.353500604629517 0.07160088 -0.9451221 -0.3187751 134 141 133
4.18080941455991 1.8919227788023 -0.334297299385071 0.3270528 0.9194161 -0.2184275 153 157 152
4.18530169742734 1.94360608549633 -0.317662566900253 0.2730008 -0.1805644 -0.9449164 186 188 183
4.25433132665784 1.91972143145123 -0.337188363075256 0.03487724 0.9991668 -0.02119527 189 189 191
4.17519036548764 1.91106314154186 -0.317899793386459 0.6438138 0.3641027 -0.673003 174 177 176
4.19771102684171 1.91923219652691 -0.316461652517319 -0.1273969 -0.0720107 -0.9892343 182 182 177
4.25097326057584 1.96675676794567 -0.330160856246948 -0.2004835 -0.9782526 -0.05318161 135 141 134
4.17307028787763 1.90597779245892 -0.335854023694992 0.9708336 0.2362977 0.0405658 137 146 136
4.17765150087506 1.89926166029492 -0.376818120479584 0.7516304 0.5106179 0.4175179 155 156 145
4.22310785072477 1.93622273893871 -0.319841980934143 -0.1214059 -0.07686497 -0.9896224 242 192 231
4.17847434299619 1.91193789930859 -0.314326733350754 0.2153611 0.3098952 -0.9260586 205 205 201
4.18194363134534 1.91689712496319 -0.31364843249321 -0.09133136 -0.0223047 -0.9955707 194 193 191
4.16755501049192 1.92029971571484 -0.357737123966217 0.9972219 -0.06526661 -0.03589713 148 152 141
4.23252604025037 1.91873187513867 -0.379397839307785 -0.8385597 0.4572072 0.2962754 187 190 188
4.23239264505536 1.9097028443388 -0.335042297840118 -0.8116301 0.5805958 0.06453809 161 168 167
4.26889786737592 1.95143420191326 -0.324756801128387 -0.2583111 -0.1266114 -0.957729 166 171 167
4.19256267564923 1.94308347197094 -0.318040639162064 -0.1614077 0.01000629 -0.9868371 199 197 194
4.24244830625684 1.97141952009716 -0.339375168085098 -0.3029574 -0.950247 0.07243863 166 172 165
4.21882317083509 1.90117425413647 -0.320242285728455 -0.2678216 0.5071951 -0.819161 199 199 191
4.25691107528836 1.92096681089916 -0.337677597999573 -0.2262674 0.966153 0.123901 187 188 188
4.18628022688062 1.94396180601635 -0.318085104227066 0.1426483 -0.1254675 -0.9817889 188 189 186
4.20215878503949 1.88596279116192 -0.368923306465149 -0.3763413 0.8887101 0.2618424 172 176 173
4.2327373387161 1.91100377531567 -0.353934288024902 -0.6586092 0.7281621 -0.1897735 189 190 188
4.20625076311261 1.89711183996716 -0.318833827972412 -0.1333348 0.5499202 -0.8245056 197 196 190
4.24654773491056 1.96139723749676 -0.364386558532715 -0.4318172 -0.6421592 0.6333763 158 163 152
4.16755501049192 1.91451758833447 -0.359738618135452 0.979934 -0.1049369 -0.1694626 136 145 137
4.16737709062726 1.91643006296673 -0.348841547966003 0.9342511 0.2674993 -0.2358369 152 156 151
4.24250022190244 1.96142394037762 -0.367459982633591 -0.5011877 -0.6643693 0.5544586 149 154 142
4.26651827114255 1.96046323271313 -0.337588638067245 -0.6049715 -0.7784899 0.1672211 116 126 120
4.25802299993665 1.96477753611126 -0.336565673351288 -0.2020462 -0.948314 0.2446996 153 159 150
4.19201782959134 1.88129264803448 -0.353111416101456 0.7194837 0.6871501 0.1008356 138 145 136
4.21327826994092 1.89500660391369 -0.381695866584778 -0.698926 0.7138031 0.04458364 187 188 183
4.25213412063749 1.92329747171917 -0.354098826646805 -0.5549331 0.8062193 0.2050847 192 194 191
4.17898581045301 1.89281231852093 -0.366721659898758 0.7086952 0.6939517 0.1272088 156 157 149
4.21047613638074 1.91539234610119 -0.317410528659821 -0.115953 -0.1132743 -0.9867744 185 186 181
4.25068417804868 1.93943995924511 -0.321828663349152 -0.1383214 -0.1284083 -0.9820278 171 175 171
4.20518330352933 1.96388799639263 -0.325001418590546 0.4449497 -0.7603334 -0.4731943 174 179 173
4.1740265847984 1.89565891714611 -0.337054908275604 0.8820891 0.4662462 -0.06733033 164 169 160
4.18663600700528 1.91202682943859 -0.31503838300705 -0.1122631 0.2535067 -0.9607973 192 193 192
4.1955760480705 1.88385004492321 -0.373793631792068 -0.6291911 0.7504544 0.2023282 179 181 176
4.19854125993879 1.92345768900433 -0.317781180143356 -0.05363159 -0.2247382 -0.9729421 183 186 182
4.16575369852216 1.90279764624157 -0.348285585641861 0.9092748 0.05110421 -0.413047 166 171 163
4.19842264669568 1.91961020918408 -0.317073225975037 -0.1185523 -0.1138719 -0.9863967 191 192 188
4.20794091241986 1.90010673494854 -0.318418681621552 -0.1683322 0.3125612 -0.9348635 199 200 198
4.23707393425138 1.95859510393658 -0.378686189651489 -0.7673699 -0.4677065 0.4386275 153 161 151
4.21675494926603 1.89304954500713 -0.327566295862198 -0.4684209 0.7510654 -0.4652769 194 194 190
4.19259605425031 1.89032155962505 -0.381621748209 0.1455649 0.7280579 0.6698825 174 177 174
4.23369363563688 1.97002596350231 -0.344571679830551 0.1715169 -0.849193 0.4994529 145 153 141
4.19050560014875 1.91539234610119 -0.315409034490585 -0.1800791 -0.0194538 -0.9834598 190 191 187
4.24446836727292 1.93518871756115 -0.321810126304626 -0.01798019 -0.008421724 -0.9998029 184 185 181
4.16768846529157 1.92092246504345 -0.361851334571838 0.9885873 -0.1392848 -0.05740208 152 154 150
4.23080996292264 1.91121143789807 -0.349545776844025 -0.6699648 0.7046151 -0.2338048 174 176 177
4.21083197611005 1.89309830160656 -0.379080146551132 -0.604784 0.7949792 -0.04737543 173 176 174
4.22288546579511 1.96237570734539 -0.380776673555374 0.2768441 -0.8340635 0.4771745 131 133 120
4.17486045377881 1.95317990274944 -0.351677000522614 0.2285798 -0.9398282 -0.253918 145 152 142
4.22427914159925 1.94774252863445 -0.320360869169235 -0.009111194 -0.03747484 -0.999256 177 179 174
4.23760769384534 1.94740898104229 -0.380331873893738 -0.8142996 -0.01085997 0.5803432 145 149 140
4.27270064371259 1.95910663099804 -0.335142374038696 -0.484688 -0.8283587 0.2808905 143 150 142
4.21986100690992 1.95686048956432 -0.32299992442131 -0.03639084 -0.1052789 -0.9937767 183 184 180
4.21662048118741 1.96688706369915 -0.323702037334442 0.1448732 -0.7404318 -0.6563326 171 178 167
4.23019096868665 1.90369827242413 -0.33210676908493 -0.8965914 0.4391786 0.05697414 186 188 184
4.2448353530708 1.92127818556347 -0.334297299385071 -0.1736772 0.9509459 -0.2560041 173 175 173
4.22079501169355 1.91349453421154 -0.319241523742676 -0.07915493 -0.02691547 -0.9964989 187 187 186
4.26247081773908 1.9662453600935 -0.329693853855133 -0.4363041 -0.8923268 -0.1157225 146 157 149
4.20672521608503 1.9628798434309 -0.356002479791641 0.1091633 -0.8817064 -0.4589959 120 130 119
4.18362633007199 1.95365805120983 -0.322955429553986 0.7787503 -0.3310294 -0.532886 172 175 166
4.17026815431745 1.91260499449291 -0.374772161245346 0.8206247 0.341575 0.4581501 155 160 151
4.21654734628827 1.94689745398083 -0.321176290512085 0.04305111 -0.04874898 -0.9978828 188 189 185
4.20771852749021 1.8921452233366 -0.323088854551315 -0.1532737 0.659013 -0.7363485 195 193 187
4.17742911594541 1.89837212057629 -0.324734538793564 0.5011647 0.5361958 -0.6792113 168 169 163
4.26223728674085 1.92534799070873 -0.331784307956696 -0.5414315 0.5878609 -0.6010586 198 198 194
4.20974228399427 1.8918783137373 -0.385469079017639 -0.5488366 0.8352216 0.0343992 184 186 182
4.22848973291547 1.9727835127882 -0.334719836711884 0.0008704686 -0.9554918 -0.2950165 167 171 166
4.18241063373716 1.88900942297497 -0.351999461650848 0.7033104 0.691617 -0.1643789 143 149 137
4.17084637897641 1.90900225134411 -0.344438254833221 0.9633706 -0.08200222 -0.2553289 149 152 146
4.22319684045942 1.90277535410442 -0.372281402349472 -0.6812761 0.6689023 0.2973762 169 172 170
4.26980963962705 1.94952160807171 -0.324111849069595 -0.2895791 0.06489722 -0.9549515 169 173 169
4.2580378414932 1.96709043474713 -0.329464018344879 -0.02516896 -0.9866881 -0.1606648 147 152 145
4.22875658291013 1.9223457047514 -0.319975405931473 -0.2660863 0.02948982 -0.9634981 195 178 188
4.21283350008161 1.96006292791882 -0.374950051307678 0.3938477 -0.814277 0.4264234 137 141 125
4.18063149469526 1.92817229719677 -0.316417187452316 0.129764 -0.2674231 -0.9548017 187 186 178
4.19179544466169 1.8954365918211 -0.38446831703186 0.2866911 0.6057544 0.742206 172 173 168
4.17296353595884 1.91337007971325 -0.318036168813705 0.7535229 0.3795115 -0.5368187 154 159 158
4.168911612207 1.93537778349438 -0.355602204799652 0.9618033 0.1874635 0.1994788 151 155 145
4.20304838436277 1.96317631693401 -0.33033874630928 0.4679146 -0.8821242 -0.05396966 154 161 153
4.23865292089612 1.95403618307629 -0.322243809700012 -0.05572627 -0.08288757 -0.9949996 169 172 168
4.24161068218381 1.91994387598553 -0.337455213069916 -0.4204949 0.8834779 -0.206521 174 180 178
4.22450891750486 1.96604520769634 -0.35546875 0.2901558 -0.9143795 -0.2823467 133 140 129
4.18619123714597 1.95205683203259 -0.376284390687943 0.4033309 -0.8733126 0.2732202 147 152 136
4.17355952280194 1.89819414110699 -0.338967472314835 0.9370611 0.2376158 -0.2558422 176 177 170
4.21028343456418 1.89321262331524 -0.375943392515182 -0.6139033 0.7891333 -0.01978139 172 174 172
4.27426854389341 1.95134527178326 -0.337310671806335 -0.9875203 0.1025613 0.1195194 174 178 176
4.22966835516126 1.9034647414259 -0.325535148382187 -0.8041641 0.4403137 -0.3993044 181 183 183
4.20871922987134 1.96299845667401 -0.358137428760529 0.0754495 -0.8782065 -0.472293 122 131 118
4.18234393613965 1.89081091375866 -0.341280341148376 0.4141212 0.9098614 0.02561028 129 136 125
4.22835627811582 1.90806824656048 -0.354089945554733 -0.6905717 0.7077843 -0.1488358 174 175 178
4.19001636522443 1.95223481150189 -0.367477774620056 0.1752536 -0.9771968 0.1198854 124 132 120
4.20171401518018 1.88011402578869 -0.344193637371063 0.02518767 0.9924199 -0.1202844 187 188 186
4.19157305973203 1.88115913363018 -0.366410315036774 0.4437141 0.8923705 0.08241813 179 180 177
4.20722929256589 1.96130830736675 -0.321532130241394 0.01193911 -0.4472404 -0.8943341 202 203 197
4.25622162836225 1.96128601522961 -0.324867963790894 -0.06752141 -0.1285306 -0.9894043 173 176 172
4.24158844965131 1.92339081259289 -0.325023651123047 -0.5524011 0.6987291 -0.4545665 209 208 206
4.17167661207349 1.91522926779308 -0.326054066419601 0.9851989 -0.171399 -0.002339309 148 154 147
4.16693232076795 1.92528123350659 -0.345416754484177 0.8699052 0.06202031 -0.4893039 155 160 158
4.21261111515195 1.90824622602978 -0.316150307655334 -0.1403385 0.01027897 -0.9900503 197 196 192
4.2140565873924 1.94302792044201 -0.320998430252075 -0.07622226 -0.1585149 -0.98441 188 179 184
4.19597635286481 1.88462848158398 -0.375439316034317 -0.5967385 0.7807402 0.1853321 181 183 179
4.23227033632428 1.91402835341015 -0.323622614145279 -0.6679696 0.482126 -0.5668961 191 193 190
4.26591042297513 1.94531113596478 -0.323844999074936 -0.2404747 0.0005907243 -0.9706552 171 174 172
4.16719917076261 1.91945464106121 -0.346395254135132 0.8607394 0.308248 -0.4051061 137 143 139
4.26263091581495 1.96474189253369 -0.325668573379517 -0.390089 -0.594841 -0.7028476 177 180 177
4.23026881235273 1.94353491755047 -0.321033984422684 -0.07372254 -0.06418644 -0.9952111 158 163 157
4.20162508505017 1.93297583551922 -0.319085866212845 0.01246485 -0.1268129 -0.9918483 190 191 189
4.1940193535629 1.93631166906872 -0.318685561418533 -0.21635 0.05480671 -0.9747763 195 196 194
4.16797015684278 1.94863206835308 -0.361087799072266 0.9212768 -0.3889052 -0.00133226 162 163 157
4.24659219997556 1.96855813952007 -0.346484214067459 -0.3293023 -0.9438914 0.02507982 166 168 160
4.19286296384961 1.90691179724255 -0.316128075122833 0.1234668 0.1463507 -0.9814975 195 195 190
4.1670657755676 1.90415424795666 -0.361161917448044 0.9570174 0.2788436 0.0797746 158 159 152
4.24957219379575 1.92181188555279 -0.333852499723434 0.02669646 0.9433482 -0.3307286 202 201 196
4.17701396959455 1.89367229433575 -0.343385607004166 0.4082435 0.9050425 0.1193119 150 154 153
4.24387905615003 1.91998834105053 -0.343415260314941 -0.3181256 0.947443 0.03387936 165 170 173
4.16728816049726 1.91118175478497 -0.356180399656296 0.9830366 -0.05409494 -0.1752504 143 148 140
4.17072186487348 1.92349321337261 -0.342080920934677 0.549973 0.2038039 -0.8099344 148 154 149
4.17275891321332 1.9526795813612 -0.362051486968994 0.3429066 -0.918171 0.1984365 146 151 134
4.24674043672712 1.95122665854015 -0.322762697935104 -0.1293241 -0.01312447 -0.9915155 190 190 191
4.21066889780194 1.89245647879162 -0.38357874751091 -0.6022458 0.7978507 0.02709836 187 188 184
4.1873921515289 1.95232374163189 -0.376417815685272 0.4070319 -0.8902676 0.2043251 143 147 130
4.26349375265271 1.92399138899365 -0.336432218551636 -0.5206137 0.8521209 -0.05339758 189 191 189
4.22983292358548 1.91151971312084 -0.323738247156143 -0.8422807 0.3315168 -0.425041 192 193 189
4.2109209658447 1.89232308359661 -0.382110983133316 -0.5827329 0.8126467 0.005258011 187 188 184
4.19840786474378 1.93571872206249 -0.319990247488022 -0.07962116 -0.06427231 -0.994751 192 193 188
4.22452709692151 1.96127993555584 -0.323206126689911 -0.04290752 -0.0273957 -0.9987034 192 192 187
4.26844564693601 1.9292398163847 -0.345149874687195 -0.8795112 0.4751927 -0.02553407 190 192 187
4.24316737669141 1.9626426169447 -0.32326677441597 -0.01807017 -0.06040605 -0.9980103 180 181 174
4.23158088939817 1.91010314913311 -0.32763671875 -0.8931102 0.3621688 -0.2668107 197 199 195
4.21817085760267 1.89579243155041 -0.361584454774857 -0.7599785 0.6484052 -0.04475906 175 178 177
4.21492395418317 1.88618511648693 -0.347507208585739 -0.6491514 0.7274776 0.2222136 185 186 183
4.21908262985379 1.90108532400646 -0.382466822862625 -0.722959 0.6844666 0.09399838 184 184 181
4.17320368307264 1.89926166029492 -0.369657188653946 0.6955633 0.6785606 0.2361085 160 160 149
4.18685839193494 1.96126384230175 -0.324779033660889 0.2935363 -0.8906157 -0.3473329 179 183 176
4.25617716329725 1.92565924616375 -0.351688146591187 -0.5084449 0.8006497 0.3169288 184 187 185
4.27216694372327 1.95828372927227 -0.338300287723541 -0.4405281 -0.8258918 0.3519059 140 147 142
4.23219618814618 1.91334635706463 -0.34735894203186 -0.7255406 0.6880286 -0.01440191 168 172 171
4.20126924532087 1.95881754847088 -0.351154386997223 0.1685933 -0.9704037 -0.1728959 114 123 110
4.20273700969846 1.88035852404156 -0.343904495239258 -0.1226968 0.9880511 -0.0932764 191 193 190
4.17498282211454 1.92955107183972 -0.332295775413513 0.9321302 0.241705 -0.2696516 140 147 138
4.21225527542264 1.93130058737316 -0.319500982761383 -0.02977975 -0.0759619 -0.9966659 220 184 211
4.26055822389753 1.9477648207716 -0.323177814483643 0.0007514358 -0.1033309 -0.9946467 176 178 174
4.18296656625898 1.95732755156078 -0.35982757806778 0.3612182 -0.9299174 0.06910174 163 165 157
4.20189193504483 1.89917273016491 -0.316239267587662 -0.1781083 0.3421065 -0.922627 199 199 193
4.2158876420799 1.92382819147625 -0.319204449653625 -0.1012936 -0.05437681 -0.9933694 181 182 180
4.17333713787229 1.9357335040144 -0.335942983627319 0.9293925 -0.1492647 -0.3375642 143 151 140
4.23232958334119 1.95881754847088 -0.32224377989769 0.05939354 -0.05829248 -0.9965312 185 185 183
4.17998657243879 1.93935842009106 -0.323733806610107 0.904334 -0.2528416 -0.3438766 162 166 156
4.20448646562726 1.8817818829588 -0.339412242174149 -0.2807832 0.952 -0.1218888 181 183 181
4.22597668188245 1.95072252245464 -0.320909440517426 -0.08632663 -0.1693869 -0.9817616 188 188 184
4.20266286152036 1.88974339457073 -0.325060725212097 -0.1958934 0.3879709 -0.9006133 201 200 197
4.19252190607221 1.96006292791882 -0.331495195627213 0.1334276 -0.9568511 0.2581336 149 154 148
4.23111388700635 1.94182700605908 -0.320820480585098 -0.08480897 -0.04898654 -0.9951923 155 160 156
4.20547238605649 1.95154542418041 -0.385024309158325 0.2618954 -0.753244 0.6033525 125 130 107
4.21530202644498 1.89136690588513 -0.359605193138123 -0.8086541 0.5881137 -0.01416821 170 174 173
4.16688785570295 1.9190543362669 -0.370368838310242 0.9968454 0.04761125 -0.0635006 161 164 157
4.24347875135572 1.97033733816662 -0.344749599695206 -0.2574707 -0.948049 0.1868474 166 170 165
4.21852663772733 1.89977306814709 -0.377084970474243 -0.7131251 0.6919438 0.1125449 169 173 171
4.21221081035764 1.90095180960217 -0.318685561418533 -0.2138362 0.2820331 -0.9352707 180 182 181
4.17073521631391 1.9305962988905 -0.35947173833847 0.988316 -0.1041918 0.1112454 133 139 131
4.22493145483167 1.90255302877941 -0.365720897912979 -0.810088 0.586125 -0.01465767 167 172 173
4.22017232196958 1.89921719522991 -0.37085810303688 -0.6002586 0.7334458 0.3189778 172 175 170
4.20192155855329 1.96089310141125 -0.343504220247269 0.2592875 -0.8991296 0.3526131 140 142 129
4.21843770759732 1.89414674730816 -0.352666646242142 -0.7628635 0.5991621 0.24299 176 178 175
4.27003202455671 1.95014435740032 -0.357114434242249 -0.8136666 -0.295995 0.5003335 179 181 178
4.17164698856504 1.90506596060314 -0.331762045621872 0.971865 0.2000915 0.1242653 152 156 148
4.17155799883039 1.91171545477429 -0.323978424072266 0.9803759 0.04013104 -0.1930092 176 179 174
4.17907480018766 1.9525906512312 -0.345906019210815 0.41552 -0.8985813 -0.141049 124 130 113
4.22706643360288 1.96651215048351 -0.354579210281372 0.0882653 -0.9279972 -0.3619811 143 153 142
4.2109876634422 1.92895061464825 -0.318996906280518 -0.06775618 -0.06394417 -0.9956506 197 190 195
4.18934915083081 1.95219034643688 -0.367166429758072 0.1894363 -0.9788512 0.07722842 127 135 123
4.20802984254987 1.88542897196331 -0.327996253967285 -0.6294011 0.5107634 -0.5856407 192 194 189
4.21284834163816 1.89356846304455 -0.324304580688477 -0.3607315 0.7667243 -0.5310429 176 180 178
4.21426788585813 1.92305726500073 -0.319074749946594 -0.1141367 -0.0844454 -0.9898696 183 186 182
4.21378979700238 1.89534754248181 -0.38306725025177 -0.7167871 0.6918879 0.08664546 189 190 183
4.2157690288368 1.9189654061369 -0.318329721689224 -0.1228478 -0.09084322 -0.988259 180 182 178
4.18436763303907 1.95708293409863 -0.352221846580505 0.3407156 -0.9401204 -0.009298977 141 146 137
4.18254408853681 1.95009989233532 -0.322377234697342 0.7875537 -0.1655614 -0.5935895 191 191 187
4.24005392807157 1.94823176355877 -0.376729160547256 -0.746767 -0.1234406 0.65353 127 133 110
4.18020901697309 1.89134449453869 -0.338455975055695 0.4074831 0.9131789 -0.007862674 152 154 153
4.18063149469526 1.92430264444866 -0.315082848072052 -0.04531017 -0.2489103 -0.9674661 173 179 171
4.21710333841474 1.89890582056561 -0.374171704053879 -0.6444056 0.7489752 0.1542001 169 173 171
4.23898646848829 1.91846127005139 -0.341547191143036 -0.4992062 0.8599356 0.10632 180 185 182
4.18625793474347 1.91525144072094 -0.314348965883255 -0.1422117 0.05098673 -0.9885222 185 185 180
4.26682958620221 1.96362108679333 -0.329404711723328 -0.6107671 -0.7759699 -0.1575887 153 161 160
4.18636915701062 1.88313097448864 -0.371569752693176 0.6835117 0.7279484 -0.05387807 180 182 177
4.26651827114255 1.94018132181683 -0.355290830135345 -0.609497 0.3530701 0.7098274 191 192 189
4.23587301986844 1.91629666777172 -0.369879573583603 -0.8274949 0.379613 0.4136983 179 182 180
4.22462013977201 1.90302009077587 -0.369545996189117 -0.7615806 0.6256053 0.1691537 170 173 171
4.2546723248306 1.95527417154827 -0.323696732521057 -0.1398019 -0.01407759 -0.9900794 168 171 165
4.25802299993665 1.92078895063915 -0.335965216159821 -0.2786292 0.9562835 -0.08881208 183 185 188
4.1667988659683 1.91509575338879 -0.371747642755508 0.9125627 0.3212874 0.2529896 149 155 143
4.21710333841474 1.89565891714611 -0.325134843587875 -0.495754 0.7053484 -0.5066671 195 196 192
4.23126218336255 1.90919501276531 -0.333229809999466 -0.8797836 0.4753402 -0.005697846 159 165 164
4.20558360832364 1.88963956327953 -0.381858944892883 -0.4052524 0.9036653 0.1384182 177 178 175
4.22642890232236 1.9053402611784 -0.343607991933823 -0.8337302 0.4636983 0.2997964 160 165 163
4.2209729315582 1.89806074591198 -0.3613620698452 -0.7386894 0.6737165 -0.02107278 171 176 175
4.22650305050046 1.94295377226391 -0.32095393538475 -0.04156903 -0.002172218 -0.9991333 162 165 159
4.24621412771375 1.92112249823132 -0.339100897312164 -0.1641039 0.983662 -0.07402 185 187 186
4.16593155878217 1.91380590887585 -0.363786101341248 0.9975252 -0.07006435 0.005867594 159 161 149
4.20376000421674 1.88056618662396 -0.346973478794098 -0.2305404 0.9683901 0.09524573 180 183 179
4.22711089866788 1.94941038580456 -0.32095393538475 -0.1233238 -0.1144905 -0.9857399 176 176 173
4.17271444814832 1.89768273325482 -0.358204126358032 0.5262759 0.8416263 0.1212388 150 156 148
4.24266031997831 1.97068423719921 -0.332002222537994 -0.3443823 -0.9293237 -0.1332602 149 158 154
4.20060209053189 1.88965446444073 -0.324734538793564 -0.2083003 0.4110018 -0.8875182 200 201 196
4.27318993824155 1.9457854697279 -0.348144739866257 -0.9851829 0.1142124 0.127946 159 166 167
4.18512377756269 1.88934308977642 -0.343593150377274 0.4970926 0.8553976 -0.1455812 154 157 154
4.22061715143354 1.89814967604199 -0.368144929409027 -0.6471972 0.7236345 0.2397684 178 180 176
4.19428620355756 1.91482002230206 -0.315527617931366 -0.2041937 -0.001214919 -0.9789298 188 191 187
4.21659187095792 1.9409151742033 -0.320776015520096 -0.0207533 -0.1919954 -0.9811764 171 169 169
4.18691769855649 1.9190246531538 -0.314845651388168 -0.1668184 -0.116218 -0.9791144 191 191 188
4.21732578294904 1.91198236437359 -0.318952411413193 -0.1765448 -0.05812245 -0.9825751 171 174 170
4.2464142801109 1.93072981329479 -0.321887969970703 -0.08513445 0.1580038 -0.9837616 204 204 201
4.1873921515289 1.9122046896986 -0.314593583345413 -0.09795457 0.2542495 -0.9621653 187 188 182
4.25210741775663 1.9663342902235 -0.346083909273148 -0.5331117 -0.8445989 -0.04944363 140 150 148
4.25077310817868 1.94706053228893 -0.323311269283295 -0.1297993 -0.1170637 -0.9846056 175 178 176
4.16868177669675 1.91135961504498 -0.369953721761703 0.8986147 0.2717531 0.3444443 151 155 145
4.27096608894498 1.95979601831951 -0.334074884653091 -0.3478675 -0.9061643 0.2405297 163 166 154
4.21020928638608 1.88267142267742 -0.3470179438591 -0.4479969 0.8626876 0.2346676 181 183 181
4.2194162370506 1.95903987379589 -0.382199943065643 0.377234 -0.8290613 0.412737 145 150 137
4.21633056419522 1.8896878430418 -0.341580539941788 -0.8030683 0.4961886 -0.329967 183 186 181
4.24414590614469 1.92250127287426 -0.365832090377808 -0.7013354 0.5561787 0.4458631 178 182 179
4.24712589996488 1.96895844431439 -0.348218858242035 -0.2609041 -0.964863 0.03111921 158 162 155
4.21270004528196 1.89481384249249 -0.371836602687836 -0.5901766 0.7695922 0.2437611 177 178 175
4.20403800027997 1.96318740339794 -0.363441407680511 0.410036 -0.8877875 0.2090549 158 160 150
4.17656180875928 1.89536983461895 -0.357336819171906 0.6398805 0.7677593 -0.0331447 143 147 140
4.25259671228559 1.92047757597485 -0.338567167520523 0.1298467 0.9892184 0.06772608 190 191 190
4.20287046449811 1.95130080671826 -0.320776015520096 -0.08750895 -0.05151063 -0.9948311 190 190 187
4.19086143987806 1.8852955767683 -0.342792570590973 0.5420697 0.7963603 -0.2682735 139 144 135
4.19055006521375 1.88852018805065 -0.332807302474976 0.4723688 0.8607132 -0.1898435 154 159 156
4.19289258735807 1.92313141317883 -0.316876798868179 -0.1791195 -0.3278988 -0.9275767 188 189 187
4.16662094610364 1.92327970953503 -0.347062408924103 0.9752107 0.1104721 -0.1917293 146 150 148
4.26914248483808 1.93871349783459 -0.328559637069702 -0.9046015 0.366444 -0.21775 198 199 194
4.19615427272947 1.92305726500073 -0.317529141902924 -0.1510205 -0.2887177 -0.9454284 178 183 177
4.22499821203382 1.90264195890942 -0.341080158948898 -0.8003532 0.4693875 0.3729747 162 168 165
4.21012035625608 1.91683036776104 -0.317529141902924 -0.1183546 -0.0973431 -0.9881885 161 168 161
4.23182556646497 1.95370251627484 -0.322644084692001 -0.02534073 -0.0827755 -0.996246 177 179 175
4.20255908983381 1.95517034025707 -0.320153325796127 -0.02905937 -0.01174921 -0.9995086 188 189 186
4.16788861768872 1.93338734598675 -0.343359649181366 0.6811337 0.01817826 -0.7319333 159 161 159
4.21610704677732 1.89707333536663 -0.376088708639145 -0.6728737 0.7380894 0.04964913 171 175 172
4.23643342273862 1.96732170076885 -0.361526638269424 -0.08156683 -0.9961863 0.03098064 149 156 146
4.2666517259422 1.95557064505139 -0.353748947381973 -0.773163 -0.6143576 0.1574285 167 172 163
4.25195179002912 1.9659784504942 -0.343570947647095 -0.4468465 -0.893691 -0.0405531 149 158 151
4.22794113176496 1.92129296751537 -0.320168137550354 -0.2380987 0.01491984 -0.9711264 183 182 182
4.17080185430677 1.91678590269604 -0.321198552846909 0.9789031 -0.02669299 -0.2025739 169 173 170
4.20851913707883 1.89143354387798 -0.381643980741501 -0.4982397 0.8670391 0.0005322893 172 176 173
4.22619912641675 1.9055776068739 -0.363852828741074 -0.7514635 0.6578725 -0.05006394 176 180 180
4.18868199604184 1.88304204435864 -0.363163411617279 0.699137 0.7081717 -0.09849018 147 152 147
4.27227816599042 1.94531840773144 -0.327403217554092 -0.7492912 0.4229241 -0.5096056 193 193 191
4.185568547422 1.93004030676403 -0.318151831626892 -0.2793981 -0.08965593 -0.9559804 184 187 184
4.24241129177243 1.93110782595196 -0.375127971172333 -0.8189012 0.4330851 0.376614 184 185 183
4.20078001039655 1.96090800257244 -0.327225297689438 0.3338444 -0.9253978 -0.1794069 154 162 151
4.17226967828901 1.91684526892224 -0.315883457660675 0.7045692 0.1241466 -0.6986916 170 172 168
4.20215878503949 1.88164848776379 -0.356158137321472 -0.4917275 0.8663871 0.08704822 182 183 183
4.21238873022229 1.96660119982281 -0.335854023694992 0.4093755 -0.9104694 0.05879753 147 152 144
4.27519146221311 1.95410282106915 -0.333941459655762 -0.9894901 -0.1061078 0.09823722 195 195 191
4.23360464590223 1.91807586641827 -0.373704671859741 -0.8834513 0.2696881 0.3831214 182 185 182
4.19868949669034 1.89930612535992 -0.316031694412231 -0.03186218 0.369241 -0.9287874 202 201 198
4.21696994321973 1.95330221148052 -0.321265280246735 -0.01028077 -0.1606917 -0.9869511 189 191 188
4.18192139881284 1.9122491547636 -0.314415693283081 -0.1047606 0.261636 -0.9594643 200 198 195
4.2462215186897 1.94565207453289 -0.322362393140793 -0.1290278 -0.1213253 -0.9841911 169 171 169
4.17280337827832 1.89990658255139 -0.326380223035812 0.6713545 0.4728004 -0.570739 181 184 177
4.23891977089078 1.9190988013319 -0.334208339452744 -0.6478534 0.7365838 -0.194243 175 178 177
4.17258105295331 1.92158956022778 -0.341680616140366 0.5561578 0.1558799 -0.8163271 146 153 147
4.24361214655072 1.93017382116833 -0.371347337961197 -0.7664809 0.4803273 0.4263716 181 183 181
4.17398206012876 1.89423567743817 -0.343637645244598 0.5156042 0.8514062 -0.09622806 150 154 152
4.1888599159065 1.90946192236462 -0.31617996096611 0.06832904 0.3747011 -0.9246244 184 185 179
4.23694047945173 1.91847605200329 -0.329404711723328 -0.7728743 0.6073033 -0.1839784 175 178 178
4.20798537748487 1.92601508589306 -0.318796753883362 -0.09599447 -0.08805388 -0.9914795 191 191 189
4.21235535162122 1.95369142981091 -0.321532130241394 -0.08613663 -0.1423073 -0.9860675 201 201 196
4.19083914774091 1.9586952397398 -0.349519848823547 -0.0001737975 -0.9999997 -0.0007538589 150 154 144
4.24343428629071 1.92634863348522 -0.322421699762344 -0.1622026 0.4362118 -0.8851043 193 189 187
4.27523592727811 1.95517034025707 -0.331228315830231 -0.9456801 -0.2675011 -0.1847495 183 184 184
4.22221831100614 1.96998149843731 -0.339501202106476 0.2936122 -0.8498999 0.4375638 147 152 146
4.18828169124753 1.93760163279095 -0.317529141902924 -0.2035227 -0.01625975 -0.9789352 182 184 179
4.20985344665677 1.88614065142193 -0.330205321311951 -0.6616689 0.6329788 -0.4019105 191 191 189
4.23600647466809 1.91540712805309 -0.361806869506836 -0.7178008 0.6962416 -0.003109681 203 205 206
4.21057400720746 1.9035137364439 -0.317778199911118 -0.1481982 0.1997586 -0.9685731 192 194 191
4.26020238416822 1.96685022802868 -0.329422503709793 -0.2056199 -0.972917 -0.105608 158 162 158
4.16771069782407 1.90537733526745 -0.358248621225357 0.9744849 0.1622709 0.1550718 137 142 134
4.22019455450208 1.89899475069561 -0.323088884353638 -0.4332813 0.6672545 -0.6058372 189 190 187
4.23547271507413 1.97029275389233 -0.327225297689438 0.1223751 -0.9575347 -0.2610585 161 167 160
4.2293792726341 1.90797931643047 -0.325713068246841 -0.8911528 0.2261366 -0.3933306 183 185 179
4.16786638515622 1.9424941012434 -0.367566734552383 0.9718812 0.1851763 0.1454534 143 148 143
4.2057615281883 1.89061064215222 -0.380153983831406 -0.460349 0.8822332 0.09870852 167 170 168
4.16742155569226 1.92167849035778 -0.355023980140686 0.9995837 -0.02803949 -0.006805203 142 145 139
4.23582855480344 1.91331667395153 -0.335809528827667 -0.7821214 0.6229287 -0.01568606 172 175 174
4.1653311015907 1.90264195890942 -0.350042462348938 0.9738896 0.1797081 -0.1387231 159 164 157
4.16715476530225 1.94198269339123 -0.361806869506836 0.9802116 0.187303 0.06405314 156 157 153
4.22219607847364 1.93993658514538 -0.320420205593109 0.02215294 -0.07685298 -0.9967963 214 182 206
4.25427571552427 1.95140082331219 -0.32415634393692 -0.1385296 -0.008258298 -0.9903238 164 166 159
4.27261177318723 1.95060390921154 -0.350665152072906 -0.8911949 -0.3899223 0.2318023 185 188 186
4.22728881853254 1.96911413164654 -0.34352645277977 0.2238801 -0.7880709 0.57343 104 112 90
4.26260421293409 1.96250922174969 -0.345149874687195 -0.4120389 -0.8588083 0.3044211 170 172 167
4.20273700969846 1.88694126101055 -0.378441572189331 -0.3773331 0.9164471 0.1332081 185 185 181
4.26867542284162 1.92895061464825 -0.341524958610535 -0.9164844 0.3812023 -0.1214132 195 195 192
4.1923143626991 1.87900943251171 -0.361547380685806 0.5703473 0.8120151 -0.1238362 150 156 147
4.19268504398496 1.87932068796673 -0.359916538000107 0.5426474 0.8137928 -0.208027 146 153 146
4.19437519329221 1.87720066996136 -0.362184911966324 0.0261552 0.9952943 0.09330097 166 166 157
4.19624326246412 1.87809020967999 -0.362496256828308 -0.2092566 0.9624703 0.1728081 182 182 178
4.26040253656537 1.96195322962322 -0.354957282543182 -0.6211489 -0.7810126 -0.06475649 170 176 169
4.17898581045301 1.90179688425579 -0.382110983133316 0.8629601 0.3277144 0.3845818 159 160 152
4.25206295269162 1.91972143145123 -0.335676103830338 0.1277363 0.973675 -0.1887871 194 194 192
4.20814106481702 1.92981798143902 -0.319263756275177 -0.06774496 -0.09171938 -0.9934778 180 184 179
4.17867449539335 1.90348703356304 -0.382155478000641 0.8397637 0.3187638 0.4395299 156 158 151
4.17840764539869 1.90686733217755 -0.382956087589264 0.7842118 0.3179505 0.5328408 152 156 146
4.27516183870465 1.95555574389019 -0.335646450519562 -0.9685147 -0.1806464 0.1713073 190 192 188
4.18205479400785 1.88872034044781 -0.377085000276566 0.8906987 0.4211634 0.1711062 168 170 164
4.18244621771009 1.887270397859 -0.373882591724396 0.8703104 0.4861293 -0.0789822 160 163 152
4.18120971935422 1.88978785963574 -0.373215436935425 0.8648567 0.501067 -0.03089958 153 156 145
4.18264786022336 1.88814217539349 -0.371302872896194 0.829652 0.5229161 -0.1955411 150 152 143
4.18161002414853 1.89445800276318 -0.381310403347015 0.811456 0.4475266 0.3758446 146 150 138
4.18095771091611 1.89592582674542 -0.381013870239258 0.8632655 0.4083832 0.2966409 162 164 155
4.18125418441922 1.89445800276318 -0.379397839307785 0.8616087 0.4247012 0.2779555 160 162 150
4.18087611215741 1.89323491545239 -0.375839620828629 0.8811135 0.4082216 0.2387343 160 162 152
4.18078718202741 1.89332384558239 -0.377196192741394 0.8826838 0.399931 0.246829 163 165 156
4.18058702963025 1.89492506475964 -0.376062005758286 0.848208 0.4499224 0.2794869 159 162 153
4.17669520395429 1.90161890478649 -0.377196192741394 0.7277518 0.4354683 0.5298534 160 161 149
4.17856327312619 1.89871687384167 -0.37972030043602 0.8553482 0.3840281 0.3477096 162 162 154
4.18016449230344 1.89327938051739 -0.372214674949646 0.8501907 0.5124419 0.1207437 149 153 141
4.17943058031232 1.89508075209179 -0.372681677341461 0.8016464 0.5455709 0.2443675 153 156 143
4.17609474676282 1.89917273016491 -0.373971551656723 0.6592116 0.6874998 0.304605 157 160 147
4.17622820156247 1.8970599839262 -0.37125837802887 0.6765081 0.6885319 0.2612674 160 162 154
4.17142460363538 1.90130764933148 -0.371925562620163 0.7726543 0.5015431 0.3891785 178 177 170
4.17219183462293 1.90152997465649 -0.371725410223007 0.7521349 0.5419054 0.3750088 169 168 161
4.17865226286084 1.89750475378552 -0.37368243932724 0.7398385 0.5983875 0.3075247 159 161 154
4.18231055753858 1.8894209334425 -0.369946300983429 0.7868577 0.5811719 -0.2075916 147 151 145
4.18243286626966 1.8901214072279 -0.36174014210701 0.634464 0.7651279 0.1097033 153 156 149
4.17009023445279 1.90139657946148 -0.365120440721512 0.7353888 0.6375155 0.2297332 152 159 152
4.16871145980985 1.90161902399578 -0.362051486968994 0.7825367 0.6070794 0.1381699 156 159 156
4.16867808120877 1.90146333666363 -0.3597052693367 0.8128204 0.571145 0.1145271 151 156 151
4.17996433990628 1.89178938360729 -0.369368076324463 0.7694942 0.6382521 -0.02264663 164 165 160
4.18054256456525 1.89159662218609 -0.367522269487381 0.7391837 0.6708213 0.06005184 143 145 137
4.17969748991163 1.89232308359661 -0.36894553899765 0.7410879 0.6713442 0.009253967 158 158 150
4.17828527706296 1.89509183855572 -0.369256883859634 0.7450559 0.6392369 0.1904412 151 154 143
4.1786299707237 1.89345735998669 -0.365809857845306 0.7222076 0.6809947 0.1210887 151 153 144
4.17404875772626 1.89812750311413 -0.369657188653946 0.6362657 0.7346043 0.2356321 158 160 152
4.17611697929532 1.8969710537962 -0.3672776222229 0.6816964 0.7252116 0.09673712 148 152 146
4.17320368307264 1.89912826509991 -0.368367344141006 0.7017558 0.692517 0.1672094 165 168 160
4.17124668377073 1.89890582056561 -0.364987015724182 0.639719 0.7438697 0.1934361 155 158 149
4.17186937349469 1.8985055157713 -0.364853590726852 0.605407 0.775547 0.1789111 147 151 142
4.17266998308332 1.89810521097698 -0.366187930107117 0.6119209 0.7802063 0.1297342 147 152 141
4.17427120226056 1.89801628084698 -0.365075945854187 0.5765222 0.8129255 0.08230623 154 157 152
4.17142460363538 1.90104073973217 -0.367033004760742 0.7738007 0.6052981 0.1866727 151 157 148
4.17689535635144 1.89628166647473 -0.367611199617386 0.7010233 0.7013977 0.1288709 143 148 139
4.17863003032834 1.8919227788023 -0.363875061273575 0.7572816 0.6416785 0.1215452 151 154 147
4.18017188327939 1.89067739935436 -0.361695647239685 0.663379 0.7448508 0.0715939 169 170 167
4.17747358101041 1.89472491236248 -0.362296104431152 0.7753196 0.6286522 0.06062864 149 156 148
4.17778495567472 1.89374632330456 -0.360124111175537 0.7948939 0.6064655 0.01852905 146 152 143
4.17702875154645 1.89561445208111 -0.359716415405273 0.7007672 0.7125344 0.03492912 140 145 137
4.17218068855436 1.8987724253706 -0.363830596208572 0.5830319 0.8001817 0.1406524 147 150 145
4.1737819077316 1.89846105070629 -0.363519251346588 0.5228246 0.8478337 0.08850122 159 161 159
4.17351505773694 1.8985944459013 -0.36071714758873 0.4980608 0.8632706 0.08184885 169 172 170
4.17302582281263 1.8987279603056 -0.360494762659073 0.5020719 0.8613912 0.07699963 170 173 169
4.17631719129712 1.89721579046765 -0.361606687307358 0.6154266 0.7848681 0.07233438 146 151 145
4.17676196115644 1.89681536646404 -0.364408791065216 0.6576004 0.7529296 0.02566684 139 142 136
4.1704016091171 1.90651149244824 -0.371614217758179 0.8748916 0.2728199 0.4001674 148 153 140
4.1704016091171 1.91147083731213 -0.373326629400253 0.8536329 0.2952181 0.4291354 157 161 151
4.1704460741821 1.91006977053204 -0.373593509197235 0.851086 0.2882748 0.4388054 165 166 156
4.1688893796745 1.91127068491497 -0.372192442417145 0.8468601 0.3039763 0.4363789 158 162 153
4.17718449848325 1.90760130377331 -0.381354868412018 0.7628868 0.2802855 0.5826181 157 160 149
4.17533866184385 1.9090468356184 -0.379620224237442 0.7551923 0.2340718 0.6122866 155 159 148
4.17342606800229 1.91118175478497 -0.377707690000534 0.7613814 0.2883752 0.580636 164 166 155
4.17298135774762 1.91135961504498 -0.377374112606049 0.7613814 0.2883752 0.580636 160 163 152
4.17720673101575 1.90900225134411 -0.381488293409348 0.7597911 0.2607244 0.5956007 162 164 153
4.17849657552869 1.91055900545635 -0.381354868412018 0.759814 0.2567499 0.5972958 168 168 159
4.17218068855436 1.9088243910841 -0.375305891036987 0.7832811 0.2487329 0.569739 162 164 151
4.17155799883039 1.91020316572704 -0.37406051158905 0.8277799 0.2962616 0.4764551 164 166 156
4.17080191391141 1.9157185027174 -0.377707690000534 0.7656992 0.3541816 0.5368986 155 158 149
4.16942307966382 1.91718620749035 -0.37637335062027 0.8411233 0.3347108 0.4248295 156 159 147
4.16755501049192 1.91847605200329 -0.374905586242676 0.926036 0.1646848 0.3396119 169 172 164
4.16624293344648 1.91869849653759 -0.372748404741287 0.9791862 0.1344572 0.152038 169 171 164
4.1653311015907 1.91941017599621 -0.373749166727066 0.9693544 0.09034215 0.228452 168 169 162
4.16724369543225 1.92336863966503 -0.374416321516037 0.9427042 -0.3153583 0.108894 123 125 107
4.1770288111511 1.91331667395153 -0.380287408828735 0.7558443 0.242527 0.6081777 155 158 145
4.17094645517499 1.90355379076519 -0.369568228721619 0.8467765 0.4245381 0.3205262 169 171 164
4.16991237419278 1.90419871302166 -0.368189424276352 0.8494022 0.4098585 0.3324635 167 169 161
4.16911170499952 1.90367979498425 -0.365713477134705 0.8447165 0.4642612 0.2662996 156 161 150
4.16957876699598 1.90275306196728 -0.36532062292099 0.8120684 0.5227326 0.259414 158 164 153
4.16764400022657 1.90704531164684 -0.366454780101776 0.9116304 0.254205 0.3229703 149 151 144
4.16817770021589 1.90535516233959 -0.365809857845306 0.9136328 0.2872318 0.2877029 156 159 149
4.16955653446347 1.90900225134411 -0.3698351085186 0.8750141 0.2703252 0.4015902 150 153 146
4.16746608036191 1.91127068491497 -0.366588234901428 0.9542456 0.1711992 0.2451658 147 151 143
4.1670213105026 1.9121602246336 -0.366855084896088 0.9596705 0.1491213 0.2383176 151 156 147
4.16733262556226 1.90477687807598 -0.364764630794525 0.9131252 0.3272421 0.2431359 155 157 146
4.1670657755676 1.90513271780529 -0.363341331481934 0.9528216 0.2664872 0.1453124 162 164 154
4.16657648103864 1.90786809416332 -0.361495494842529 0.9786365 0.2053795 0.00948206 152 155 150
4.16617617624433 1.91138190718212 -0.361339837312698 0.9955506 0.004888832 -0.09410131 155 157 149
4.16576108949811 1.91347975225964 -0.362244218587875 0.9930279 -0.06107198 -0.1008261 163 164 153
4.1653311015907 1.91273838968792 -0.360806107521057 0.9930947 -0.0445311 -0.1085349 160 160 151
4.16726586836011 1.91091484518566 -0.359071463346481 0.9863591 0.03046815 -0.1617634 140 147 140
4.16657648103864 1.91429514380016 -0.36574313044548 0.9922618 -0.005450662 0.1240439 155 160 148
4.16719917076261 1.91776449175396 -0.367477774620056 0.9991808 -0.04045437 0.001115278 146 149 142
4.1670435430351 1.91870958300152 -0.365487396717072 0.9745606 -0.2229035 -0.02335896 154 158 150
4.16751054542691 1.92021078558483 -0.369746148586273 0.98259 -0.1464823 -0.1142801 150 153 145
4.16700646894605 1.92172295542278 -0.369583070278168 0.9562614 -0.2774443 -0.09267585 166 166 156
4.16808877008588 1.92394692392864 -0.369879573583603 0.9180095 -0.3886909 -0.07859994 156 160 151
4.16808877008588 1.92256803007641 -0.365876585245132 0.9660842 -0.2572365 -0.02259626 152 158 147
4.23442748802335 1.91293854208508 -0.370079755783081 -0.8665427 0.4677476 0.1741147 186 188 187
4.1686224700752 1.92381340952435 -0.366944044828415 0.9545962 -0.2971852 -0.02066516 153 160 148
4.16582039611966 1.91465098352947 -0.363563716411591 0.9940969 -0.1082583 0.007173896 164 165 156
4.16568694132001 1.91438407393017 -0.362407296895981 0.9934595 -0.08302957 -0.07838568 165 165 156
4.16542009132535 1.91473991365948 -0.362674176692963 0.9923642 -0.09456856 -0.07918403 169 169 161
4.16715470569761 1.91676372976818 -0.363430291414261 0.9863945 -0.1629516 -0.02174203 146 151 143
4.16724369543225 1.91852051706829 -0.362941026687622 0.9728113 -0.2045691 -0.1085804 152 156 149
4.16794047372968 1.91877264471569 -0.359190076589584 0.9835769 -0.1532265 -0.09538399 140 145 138
4.16789970415265 1.92182309122601 -0.363652676343918 0.9803123 -0.1946325 -0.03325635 152 156 146
4.19386366623075 1.88222665281811 -0.374950051307678 -0.5132077 0.8181576 0.259299 185 187 182
4.16802201288373 1.92327970953503 -0.363408029079437 0.9749794 -0.2222096 -0.006170446 153 157 149
4.16817770021589 1.92283482046642 -0.361028492450714 0.9878532 -0.1541825 -0.01933448 151 154 146
4.16728816049726 1.92390233965435 -0.360361307859421 0.9759287 -0.2180856 0.001379404 143 147 138
4.19157305973203 1.88969892950573 -0.382022053003311 0.1480513 0.6739815 0.7237608 157 159 151
4.19900087135465 1.88952106924572 -0.383423089981079 0.006465555 0.9259997 0.3774689 181 181 181
4.20013508814008 1.88907618017712 -0.383423089981079 -0.01291057 0.9237576 0.3827599 180 182 182
4.20144716518552 1.88920969458141 -0.382911592721939 -0.09964351 0.9446618 0.3125464 181 183 183
4.23416802900464 1.91908390017071 -0.373304396867752 -0.8340414 0.3666973 0.4121992 181 184 181
4.18334463852079 1.89330167265453 -0.382244437932968 0.5864608 0.4633848 0.6643329 153 154 151
4.18952707069547 1.89143354387798 -0.383045017719269 0.274094 0.5975801 0.7535055 169 169 165
4.2344348789993 1.96711999865093 -0.369049340486526 -0.2745434 -0.9186546 0.284077 152 157 149
4.20189193504483 1.89072186441937 -0.38651430606842 -0.110663 0.9060214 0.4085081 178 180 179
4.20560584085614 1.88983232470074 -0.38344532251358 -0.3540315 0.9198374 0.1689999 177 180 173
4.2175926329437 1.94115979166546 -0.321265280246735 0.004943272 -0.1634531 -0.9865387 177 174 174
4.20229223983915 1.88400573225536 -0.326024413108826 -0.09734236 0.5275006 -0.8439595 177 180 171
4.2073182226959 1.89094430895367 -0.385002046823502 -0.4138348 0.8964537 0.1584661 179 181 177
4.2073182226959 1.89072186441937 -0.382733672857285 -0.5045819 0.8630673 0.02262692 174 178 175
4.21568009870679 1.89812750311413 -0.384757429361343 -0.7147242 0.6918939 0.1022358 191 191 187
4.21469042318494 1.89711553545513 -0.383801162242889 -0.7167786 0.6916418 0.08865716 190 191 185
4.21509072797925 1.89700443239727 -0.381443828344345 -0.7118117 0.6978918 0.07919063 186 188 180
4.21665856855542 1.89921719522991 -0.384557276964188 -0.7181313 0.6885291 0.10107 194 193 188
4.21777055280835 1.89985472651043 -0.383549124002457 -0.7192296 0.6888355 0.0906334 192 192 186
4.21723679321439 1.89926166029492 -0.382288902997971 -0.7176244 0.6910255 0.08659643 188 189 181
4.2175629498306 1.89959520788708 -0.381265908479691 -0.7248349 0.6822555 0.09561317 184 185 178
4.21972755211026 1.90184134932079 -0.381799638271332 -0.6795151 0.7261547 0.1046827 186 187 183
4.19693264978559 1.91318315954724 -0.317173302173615 -0.1664005 -0.01756966 -0.9859017 204 203 198
4.25044695156247 1.96749062033215 -0.34689936041832 -0.4865715 -0.8647713 -0.1241724 149 156 149
4.21923831718595 1.90281993837872 -0.386914610862732 -0.6905944 0.7168012 0.0963091 188 190 188
4.2210173966232 1.90308672876873 -0.383178472518921 -0.6742411 0.7302117 0.110407 187 190 183
4.224575674707 1.90695638151684 -0.38651430606842 -0.7189098 0.5888528 0.3693523 180 182 179
4.222588992292 1.9039837786726 -0.381414175033569 -0.5890341 0.8035334 0.08586548 192 194 187
4.2241456867996 1.90505856962719 -0.382496476173401 -0.6085325 0.7881984 0.09182346 191 192 187
4.22399745004804 1.90499920340099 -0.383556544780731 -0.6107193 0.7866622 0.0904681 186 187 182
4.2276445986572 1.90557748766461 -0.384245932102203 -0.7219596 0.639769 0.2635715 180 184 179
4.22764465826184 1.90782362909832 -0.381977558135986 -0.7987966 0.5423259 0.2603972 187 189 185
4.22768912332685 1.9121157595686 -0.383934587240219 -0.8544142 0.3395869 0.3932647 189 189 186
4.18307778852613 1.88774187059918 -0.377507537603378 0.8707299 0.4459754 0.2072086 180 179 174
4.18574646728666 1.88569588156262 -0.376773655414581 0.6275024 0.7116929 0.3158067 150 154 141
4.18583545702131 1.88338298292675 -0.373637974262238 0.6676854 0.7439625 0.02675974 159 164 153
4.24401245134504 1.92608184309521 -0.322332739830017 -0.1622026 0.4362118 -0.8851043 184 179 175
4.18857083337934 1.88131494017162 -0.372859597206116 0.4132601 0.8962687 0.1609925 177 178 173
4.18780723827512 1.88212282152691 -0.372281402349472 0.5385965 0.8397921 0.06828659 177 177 173
4.19034991281659 1.88127035589733 -0.375061273574829 0.05729967 0.8610243 0.5053256 179 180 175
4.19312981384427 1.88089222403088 -0.373326629400253 -0.3172501 0.9003189 0.2979567 185 187 182
4.19143960493238 1.87960237951794 -0.372904092073441 -0.1761933 0.9675277 0.1812348 188 189 188
4.19270727651746 1.87989158125439 -0.371992290019989 -0.1761933 0.9675277 0.1812348 177 178 171
4.19295189397962 1.88120359869518 -0.371569752693176 -0.3171077 0.9378164 0.1412203 184 186 183
4.18338916319043 1.88502878637829 -0.375127971172333 0.7683108 0.6313499 -0.1053372 156 159 147
4.18298885839612 1.88649649115124 -0.374683201313019 0.870904 0.4807117 -0.1021883 162 166 155
4.18450108783872 1.8851621815733 -0.371347337961197 0.7919464 0.5896478 -0.1585451 164 167 160
4.19458273666532 1.88344234915295 -0.375869274139404 -0.5566825 0.7909966 0.2538289 185 187 184
4.20232561844022 1.88716370554485 -0.379397839307785 -0.3249833 0.9277273 0.183597 180 181 176
4.2006910206619 1.8885424801878 -0.381666213274002 -0.2864091 0.9394897 0.1879598 181 182 181
4.20418254154355 1.88800878019848 -0.38008725643158 -0.3995148 0.9035747 0.1547277 177 179 174
4.20051310079725 1.88751954527416 -0.378997534513474 -0.3301898 0.9217503 0.2033498 177 180 175
4.19975701587827 1.88725263567486 -0.37623992562294 -0.3878604 0.9147753 0.1129175 176 178 175
4.20393786447675 1.88796419592419 -0.377974569797516 -0.4254906 0.8996868 0.09757714 181 182 179
4.20478299873502 1.88894278498211 -0.3782859146595 -0.4984302 0.8629472 0.08300299 180 182 176
4.19817802923352 1.8852955767683 -0.37172544002533 -0.4884983 0.8509046 0.1932115 174 178 173
4.19717726724775 1.8852511117033 -0.371080487966537 -0.5469205 0.8117719 0.2047054 173 175 171
4.20295939462812 1.88825339766064 -0.375817358493805 -0.4551909 0.8866249 0.08183794 173 176 173
4.20460507887037 1.88903171511212 -0.375506043434143 -0.4879136 0.8671895 0.09961299 175 178 176
4.20264807956845 1.88774187059918 -0.374371856451035 -0.4299575 0.8971276 0.101482 172 176 174
4.20487198846967 1.88836461992779 -0.373838126659393 -0.4875401 0.8633066 0.1304085 177 181 179
4.20496091859967 1.88805324526348 -0.371836602687836 -0.4721231 0.8664125 0.1625708 174 178 175
4.18394509571225 1.89145583601513 -0.38139933347702 0.5617888 0.4624104 0.685981 146 150 140
4.18312225359113 1.89218968840161 -0.381310403347015 0.7157882 0.4618899 0.5237414 150 152 146
