ply
format ascii 1.0
comment File exported by Rhinoceros Version 7.0
element vertex 495
property float x
property float y
property float z
property float nx
property float ny
property float nz
property uchar red
property uchar green
property uchar blue
end_header
4.43395516889722 2.01392561884442 -0.392340898513794 0.3557344 -0.9262921 -0.1242419 181 180 172
4.43486700075299 2.01302487345257 -0.389049559831619 0.3642726 -0.9233835 -0.1211129 185 184 170
4.43649045246274 2.01361424418011 -0.388426840305328 0.2965833 -0.9331439 -0.203177 186 185 169
4.43513385074765 2.01392561884442 -0.387314915657043 0.3633512 -0.917594 -0.1612362 187 187 175
4.4382472993675 2.01376993151226 -0.389227449893951 0.2329487 -0.9511533 -0.2025893 183 182 165
4.4424615861717 2.01487071009197 -0.38943874835968 0.2685094 -0.9621632 -0.04631128 184 184 168
4.4421169521156 2.01457054110088 -0.387314915657043 0.3114228 -0.9444098 -0.1053848 186 185 168
4.43753567951352 2.01414794416943 -0.387359380722046 0.2449149 -0.946574 -0.2097961 184 184 167
4.43793592470319 2.01199085207501 -0.38148832321167 0.3113277 -0.9471971 0.07676458 193 193 180
4.43566761034162 2.01290256472149 -0.384379357099533 0.3054214 -0.9349955 -0.1802806 187 186 173
4.44200572984845 2.01459283323803 -0.385735929012299 0.3601308 -0.9256272 -0.1162762 184 185 168
4.43949267881543 2.01205749006786 -0.382867127656937 0.3562797 -0.9343719 -0.003739716 190 189 175
4.44087151306302 2.01232439966717 -0.383267432451248 0.3830677 -0.9237202 -0.0003442207 190 189 177
4.44311765449674 2.01437038870373 -0.383222937583923 0.4916835 -0.8654234 0.09638266 192 191 176
4.41369555013807 2.00872165651837 -0.380109488964081 0.05515 -0.9145066 -0.4007944 190 189 179
4.41245017069013 2.00729841681042 -0.378486037254333 0.02704799 -0.9539967 -0.2985946 191 190 179
4.41587493436963 2.00876612158337 -0.380865603685379 -0.01344356 -0.9167331 -0.399274 192 191 178
4.42139021175534 2.00823242159405 -0.379842638969421 0.05544662 -0.9927303 -0.1068284 192 193 178
4.4181878330055 2.00747627707043 -0.377262890338898 0.1396408 -0.9828742 -0.1202442 193 193 181
4.42056736963422 2.00808782072582 -0.377741038799286 0.1366574 -0.9893486 -0.05014164 197 197 186
4.41191641109616 2.00687581987896 -0.375617206096649 0.0156335 -0.996711 -0.07951664 204 202 194
4.41178301590116 2.00618643255749 -0.375839620828629 0.0156335 -0.996711 -0.07951664 198 197 186
4.41120479124219 2.00703150721111 -0.373615711927414 -0.02189868 -0.9985456 -0.04926613 196 195 183
4.4131395580116 2.00749844999828 -0.371992290019989 0.1481565 -0.9887851 0.01880532 196 195 183
4.41475192325742 2.00763196440258 -0.371658682823181 0.1830313 -0.9826809 0.02894304 191 190 178
4.42076752203138 2.00836581678906 -0.375706195831299 0.2628495 -0.9639975 0.04023488 197 196 186
4.42045614736707 2.00897378416577 -0.373267322778702 0.3080482 -0.9393477 0.1507721 196 195 181
4.4182767631355 2.00832135172405 -0.372948557138443 0.2607992 -0.958868 0.1120536 205 206 199
4.42365858572156 2.00801009626904 -0.378107994794846 0.1534119 -0.9817119 0.112723 201 199 191
4.42288026827008 2.0085660883955 -0.37712949514389 0.1664182 -0.9796873 0.1118831 201 200 190
4.42650518434674 2.00792104692974 -0.378241419792175 0.08167303 -0.9927922 0.0877106 197 196 187
4.42825249450834 2.0088741251997 -0.379766374826431 0.2283231 -0.9716365 -0.06157143 198 195 187
4.42986325042875 2.00947780104199 -0.379108726978302 0.2343667 -0.9682696 -0.08675369 194 192 183
4.428284263784 2.00894410105267 -0.378285884857178 0.1811016 -0.9821205 0.05139687 200 199 191
4.42210183160932 2.00934440584698 -0.374460816383362 0.2003357 -0.9751362 0.09473646 195 193 177
4.42239836471708 2.00977439375439 -0.371643871068954 0.1840421 -0.9825382 -0.02733743 190 190 175
4.42957416790158 2.00925547571697 -0.374282896518707 0.1145187 -0.9932534 0.01825162 197 194 184
4.43073055761487 2.00978917570629 -0.371569752693176 0.1546655 -0.9820984 -0.1075233 191 190 176
4.42574903982312 2.01027841063061 -0.37432736158371 0.08995274 -0.991156 0.09756165 192 191 176
4.42236874120862 2.01063425035992 -0.3731709420681 0.1828334 -0.9819605 0.04822321 199 200 188
4.414985394651 2.00712043734112 -0.369301378726959 0.2207124 -0.9753321 0.003658495 192 190 178
4.41242793815763 2.00620860548535 -0.366966277360916 0.1645252 -0.9733681 -0.1596434 195 196 185
4.4115606309715 2.0065867373518 -0.364898055791855 0.1653859 -0.9612556 -0.2205342 196 196 186
4.41947767751844 2.00861043425121 -0.370190918445587 0.1552933 -0.9801239 -0.1234546 192 191 174
4.41206095235975 2.00534135790386 -0.361662298440933 0.2196033 -0.9643661 -0.147555 195 195 183
4.41427377479703 2.00720948668041 -0.363074481487274 0.2016383 -0.9634421 -0.1764125 195 194 183
4.41360656040342 2.00614196749249 -0.360227882862091 0.2087747 -0.9670783 -0.1455081 198 198 186
4.42247996347577 2.0083881089262 -0.368856608867645 0.1032368 -0.9584198 -0.2660331 190 189 176
4.42594919222028 2.00861043425121 -0.368856608867645 0.1269859 -0.946812 -0.2956714 190 188 174
4.42552665489347 2.00809902639904 -0.367433309555054 0.1400035 -0.9297814 -0.3404491 190 188 174
4.42548218982846 2.00725395174542 -0.365342825651169 0.222952 -0.9093966 -0.3511269 191 190 177
4.43189809339673 2.00988931150952 -0.367500007152557 0.2609789 -0.9542729 -0.1457847 192 191 178
4.43038955944211 2.00940377207317 -0.365461438894272 0.2379771 -0.9437696 -0.2294906 190 190 175
4.4327654601875 2.00981134863415 -0.365898817777634 0.3065619 -0.9382678 -0.1602292 192 191 178
4.42809156196744 2.00743181200543 -0.36426055431366 0.2441274 -0.9194034 -0.3083817 192 192 179
4.43064162748487 2.00801009626904 -0.363519251346588 0.2926194 -0.9100359 -0.2936129 196 196 186
4.43262085931928 2.00892180891552 -0.363385796546936 0.3483085 -0.9013739 -0.2573059 193 192 182
4.43021903055341 2.00732058973828 -0.361628949642181 0.2967352 -0.8692353 -0.3954468 196 195 187
4.42966309803159 2.00703150721111 -0.360316842794418 0.3059736 -0.8527012 -0.4234157 194 196 189
4.43264309185178 2.00600857229748 -0.359204888343811 0.3791552 -0.835739 -0.3972174 193 195 186
4.43433330076368 2.01060885878124 -0.379378795623779 0.4364866 -0.8982784 -0.05074807 195 194 184
4.43657944219739 2.01285809965649 -0.379486799240112 0.4135623 -0.8812143 0.2289705 197 196 182
4.4385809065643 2.0133919188551 -0.379464566707611 0.4615834 -0.7539102 0.4675042 199 197 184
4.43425068872602 2.01091379614391 -0.377567917108536 0.5613747 -0.8207088 0.1062807 199 197 186
4.43461499231488 2.01309532614269 -0.376076817512512 0.6293279 -0.7762927 0.03627571 191 190 178
4.43638668077619 2.01407379599133 -0.377922654151917 0.5509979 -0.7838305 0.2863759 200 198 186
4.43775806444318 2.01410347910442 -0.3782859146595 0.5567279 -0.7325522 0.3916903 196 194 180
4.43679068105848 2.01473731489697 -0.377741038799286 0.5819812 -0.7631277 0.2809518 194 193 178
4.44074920433194 2.01275808306255 -0.381310403347015 0.5206461 -0.8027014 0.2908576 192 192 179
4.43922582882077 2.01241332979717 -0.380865603685379 0.447727 -0.8080716 0.3828326 197 197 183
4.44043782966764 2.01360315771618 -0.379920482635498 0.4899559 -0.714202 0.4998587 196 194 180
4.43455568569333 2.01227993460217 -0.37521693110466 0.672911 -0.7331935 -0.09807254 191 191 178
4.43348816650541 2.01027841063061 -0.374104976654053 0.5096297 -0.8569046 -0.07740911 200 200 190
4.43397746103437 2.01070839853802 -0.374238431453705 0.6135651 -0.7838362 -0.09559613 194 194 182
4.4352450730148 2.01276916952648 -0.374460816383362 0.6780205 -0.7284706 -0.098075 189 188 175
4.4366906048599 2.01459271402874 -0.376150965690613 0.5852029 -0.7994727 0.1355763 198 197 186
4.43629030006559 2.01408118696728 -0.373460054397583 0.6040043 -0.7707719 -0.2027052 192 191 180
4.43533406274945 2.01061195822277 -0.371858835220337 0.5500757 -0.8138313 -0.1873378 196 195 183
4.43422946947248 2.0100560853056 -0.369672000408173 0.3776979 -0.9098412 -0.1718525 198 198 187
4.43637923019559 2.01196855993786 -0.371035993099213 0.5913244 -0.7532748 -0.2879454 193 191 179
4.43820283430249 2.01441485376873 -0.372192442417145 0.5594063 -0.7955089 -0.2328735 193 192 178
4.44176105278165 2.01566023321667 -0.371658682823181 0.5119743 -0.8416966 -0.1715496 203 200 190
4.43798044937284 2.01214653940716 -0.368723154067993 0.578749 -0.7532477 -0.312518 193 190 179
4.43820283430249 2.01085657568493 -0.365164935588837 0.4062469 -0.9001325 -0.1572417 198 196 185
4.43902573602826 2.01281375380078 -0.368033766746521 0.5711115 -0.7545829 -0.323166 198 195 183
4.44096050279767 2.01537103148022 -0.369145691394806 0.5356346 -0.7768318 -0.3311011 194 193 182
4.4400709034744 2.01187962980786 -0.365209400653839 0.4669163 -0.8418533 -0.2706885 191 189 178
4.43403676765592 2.00888473482647 -0.362066298723221 0.3697417 -0.8655891 -0.3377078 200 200 192
4.43295446651609 2.00805456133404 -0.360939532518387 0.4188762 -0.8180446 -0.3941393 199 199 192
4.4350300790611 2.00934440584698 -0.360064804553986 0.4748454 -0.813556 -0.3356316 200 201 194
4.43695745485456 2.01107902021923 -0.362629681825638 0.3938989 -0.9162315 -0.07323649 203 202 191
4.43713537471921 2.01065654249706 -0.361206412315369 0.4487354 -0.8795191 -0.1583751 199 199 190
4.4385142089668 2.01105684729138 -0.361451029777527 0.4499708 -0.8888226 -0.08672198 206 207 201
4.43826637285382 2.01084393950024 -0.359446346759796 0.5382223 -0.8265159 -0.1648888 206 207 200
4.44063804166944 2.01174611540356 -0.363641560077667 0.4434228 -0.8833246 -0.1520322 211 211 205
4.44247267263562 2.01276916952648 -0.361539989709854 0.3750577 -0.9241915 0.07212403 204 203 194
4.43998197334439 2.01195377798596 -0.360020339488983 0.4834624 -0.8747905 -0.03171305 209 208 202
4.44120512025983 2.01234669180432 -0.361050724983215 0.4541889 -0.8905111 0.02650427 201 200 191
4.44060466306836 2.01263565512219 -0.359382808208466 0.4790469 -0.877028 0.03655097 208 208 200
4.4840658666435 2.06931955309429 -0.354166179895401 0.7906535 -0.1926573 0.5811629 217 216 211
4.44416288154752 2.01383656950512 -0.359271585941315 0.2912765 -0.9426203 0.1631719 205 205 197
4.44672778862149 2.01398486586132 -0.361695647239685 0.3469743 -0.9374186 -0.02924596 198 197 190
4.44691160934598 2.01374763937512 -0.360014379024506 0.3119632 -0.9151947 0.2551421 206 206 200
4.45058677213819 2.01566023321667 -0.361555874347687 0.6435953 -0.7566015 -0.1154961 198 197 185
4.44934455173642 2.01448149176159 -0.359649658203125 0.4507082 -0.8609181 0.2359705 208 207 198
4.45004508512647 2.01553792448559 -0.35919377207756 0.5400029 -0.8102623 0.2277539 211 210 201
4.41663662212522 2.11923248262921 -0.350976496934891 0.06552891 -0.08287226 0.9944034 213 213 208
4.43821398037107 2.13816339464703 -0.359338343143463 0.05211357 0.9362239 0.3475184 195 195 190
4.41240570562513 2.00431842299023 -0.349286317825317 -0.1170658 -0.9909238 0.06607234 208 208 203
4.41476300972135 2.0032509038023 -0.349019467830658 -0.1933933 -0.9691634 0.1527135 210 212 208
4.42134574669034 2.00164968462505 -0.350843042135239 0.03702424 -0.9963056 0.07748719 208 208 204
4.41689792888791 2.00291723700085 -0.349842309951782 -0.1746176 -0.9762567 0.1281856 213 212 209
4.41822115200193 2.00308413000622 -0.347674012184143 -0.05556095 -0.9026377 0.4267999 212 213 209
4.41894391792447 2.00285059900799 -0.349553197622299 -0.0963422 -0.9744812 0.2027424 210 210 205
4.42574903982312 2.00391811819592 -0.358448773622513 0.1793686 -0.9261041 -0.3319006 193 192 179
4.42686096447141 2.00311750860729 -0.356002479791641 0.2226316 -0.9612306 -0.1626987 198 197 189
4.42530426996381 2.00267273874798 -0.354668140411377 0.2244074 -0.972024 -0.06935871 202 201 193
4.42471120374829 2.00267273874798 -0.353407949209213 0.1972632 -0.9803504 0.0005049485 205 205 199
4.42815086858899 2.00422937365093 -0.357247859239578 0.2237467 -0.9255507 -0.3054395 197 197 189
4.42816863077314 2.00383800955334 -0.355771213769913 0.2129921 -0.9621456 -0.1700302 195 197 189
4.42852149027021 2.0032064387373 -0.35342276096344 0.2083182 -0.9780586 0.002220505 200 201 197
4.43080840128095 2.00402922125378 -0.353267103433609 0.2282252 -0.973406 -0.01985149 194 197 195
4.4316645623985 2.00425166578808 -0.35342276096344 0.2213295 -0.9749198 -0.0233382 196 197 196
4.42701665180356 2.00303966494122 -0.351576924324036 0.2384756 -0.9653623 0.1058542 212 212 208
4.42454812544019 2.00253922434368 -0.351065456867218 0.2347398 -0.9649503 0.1173379 207 207 204
4.42272458093793 2.00289506407299 -0.348663628101349 0.1733708 -0.9524466 0.2505754 214 214 210
4.42974094169767 2.004084891992 -0.351810455322266 0.1850196 -0.977349 0.102746 189 193 193
4.41551915424497 2.00476319284954 -0.356847554445267 0.01254258 -0.9793814 -0.2016304 203 203 196
4.42658523338468 2.00453180761852 -0.347818553447723 0.3347433 -0.8719684 0.3572367 214 214 209
4.43009678142698 2.00452966185131 -0.348207741975784 0.09484965 -0.9464043 0.3087433 198 199 199
4.43050817268522 2.00447411032238 -0.349197387695313 0.1225146 -0.9600638 0.2515309 198 199 200
4.41243240850599 2.00377578230419 -0.345639139413834 -0.06751857 -0.8548664 0.5144362 210 211 207
4.41447386758954 2.00369567366161 -0.34570586681366 -0.1101896 -0.8612521 0.4960878 211 212 209
4.41480747478635 2.00409597845593 -0.344438254833221 -0.07774417 -0.7280965 0.6810516 219 218 215
4.41835460680158 2.00358445139446 -0.346150636672974 -0.01479146 -0.8460329 0.5329255 216 215 213
4.41952214258344 2.00374013872662 -0.344794064760208 -0.03925876 -0.7917845 0.6095376 215 213 210
4.41035971658857 2.00551933737316 -0.343993484973907 -0.03402182 -0.7591622 0.6500117 213 214 210
4.41227779405744 2.00535244436779 -0.343937873840332 -0.07643666 -0.7753133 0.6269344 217 217 213
4.41236124056012 2.00723165960827 -0.34331887960434 0.07237723 -0.5022953 0.8616618 220 220 216
4.41442201154859 2.00522274466076 -0.344230681657791 -0.04344418 -0.6491224 0.7594424 214 214 208
4.41411069648893 2.00725383253613 -0.343978643417358 0.05425568 -0.505896 0.8608865 224 224 220
4.41257915514142 2.00937993021526 -0.34321066737175 0.07767261 -0.396994 0.9145287 214 215 212
4.4113381864372 2.00872165651837 -0.342925995588303 0.1003384 -0.3715051 0.9229931 209 212 208
4.41596392410428 2.00765413733044 -0.343637645244598 -0.06183892 -0.4715033 0.8796934 217 217 213
4.41783199327619 2.00578612776318 -0.343637645244598 -0.08495928 -0.5262934 0.846048 209 210 205
4.41987798231275 2.00543028803387 -0.344794064760208 -0.09339591 -0.6434367 0.7597805 223 221 218
4.42014483230741 2.00587505789318 -0.343948990106583 -0.08640887 -0.6149319 0.7838318 220 218 216
4.42072305696637 2.00667566748181 -0.342925995588303 -0.1253773 -0.4786457 0.8690103 216 215 211
4.41712031381757 2.00956673117199 -0.3428815305233 -0.06513331 -0.4517904 0.8897433 202 204 202
4.41587493436963 2.01005596609631 -0.34237003326416 -0.04726238 -0.4250882 0.9039172 205 207 208
4.41834352033765 2.00961119623699 -0.342036426067352 -0.05634919 -0.4160621 0.9075886 203 205 201
4.42066375034482 2.00942344160595 -0.342085868120193 -0.08196395 -0.33417 0.9389421 210 211 204
4.41449615972669 2.01069349737682 -0.342051267623901 -0.02881498 -0.4385533 0.8982431 196 200 199
4.41169402616651 2.01263577433148 -0.341191351413727 -0.01818928 -0.3456703 0.9381797 205 207 208
4.41427377479703 2.01259130926647 -0.340657621622086 -0.03421132 -0.3797295 0.9244648 205 206 205
4.41124925630719 2.01454824896374 -0.340257316827774 -0.05358143 -0.09489175 0.9940445 209 211 209
4.41191641109616 2.01566023321667 -0.340301811695099 -0.08419908 -0.08423567 0.9928821 209 209 207
4.41458508985669 2.01515609713116 -0.33981254696846 -0.053268 -0.124631 0.9907722 206 206 202
4.41679415720136 2.01136071177044 -0.341398924589157 -0.01123029 -0.4180426 0.908358 198 200 200
4.41845468300016 2.01236886473217 -0.340702086687088 0.07319313 -0.3002629 0.9510441 199 201 200
4.41654214876325 2.01508206816235 -0.34070211648941 0.03655178 -0.1308708 0.9907254 204 202 192
4.4182767631355 2.01477069349804 -0.340657621622086 0.09590852 -0.1530943 0.9835465 206 206 198
4.42486838119657 2.00457639189282 -0.344980865716934 0.1997403 -0.8106943 0.5503439 214 214 211
4.42207965868146 2.00705379934826 -0.342281073331833 -0.006989114 -0.4741862 0.8803968 210 211 205
4.4266756536308 2.00598628016033 -0.343963801860809 0.2484589 -0.6779352 0.6918613 220 218 215
4.42591211813123 2.00766903849163 -0.34182146191597 0.1905001 -0.4552248 0.8697587 231 227 227
4.42650518434674 2.00901824923077 -0.341710269451141 0.2209137 -0.3318138 0.9171132 225 222 219
4.42846218364866 2.00623089762249 -0.345950484275818 0.2112537 -0.8242634 0.5253206 221 219 213
4.42813304680021 2.00672013254681 -0.345256626605988 0.267035 -0.7502756 0.6047965 219 218 212
4.42800257223279 2.00768393965283 -0.342288464307785 0.2557419 -0.4385609 0.8615454 224 221 220
4.42782840746076 2.00908870192089 -0.342258810997009 0.2990446 -0.4030935 0.8649208 222 219 217
4.43033025282056 2.01227993460217 -0.3428815305233 0.1280982 -0.1156803 0.9849918 201 201 197
4.43077502267987 2.01216871233502 -0.342458963394165 0.1280982 -0.1156803 0.9849918 201 202 198
4.43207970874936 2.01291746588268 -0.342762917280197 0.04852813 -0.07591486 0.9959327 214 215 208
4.42917386310727 2.01570469828167 -0.342703610658646 0.2234346 -0.1378576 0.9649208 201 201 190
4.42481503503949 2.00904793234387 -0.341502696275711 0.1141664 -0.2917259 0.9496642 231 229 224
4.43233177679212 2.01419240923443 -0.341947495937347 0.04718464 -0.06058455 0.9970472 213 213 208
4.43597898500592 2.00756520720043 -0.357203394174576 0.5875251 -0.7265481 -0.3562894 194 195 189
4.43726882951886 2.00863272638836 -0.356758624315262 0.6554014 -0.6904321 -0.3061903 200 200 196
4.43437776582868 2.00516349764385 -0.355557709932327 0.4450448 -0.8591759 -0.2524914 192 193 189
4.43586031215818 2.00560826750317 -0.353304177522659 0.4946868 -0.8464092 -0.1971711 186 186 185
4.43731329458387 2.0068536469511 -0.353956520557404 0.6735981 -0.7093731 -0.2074981 189 190 188
4.43833628910215 2.00901824923077 -0.355112940073013 0.7127407 -0.6529927 -0.2561276 194 195 190
4.43758020418317 2.00736505480328 -0.353689640760422 0.6900696 -0.6900403 -0.2182848 189 192 188
4.43842521923215 2.01100785227337 -0.358110725879669 0.5813833 -0.7998962 -0.1488607 207 208 202
4.44013319032819 2.01179069967785 -0.355877935886383 0.6537626 -0.7427238 -0.1447615 203 203 198
4.44256166237027 2.0135641762785 -0.357459127902985 0.4505518 -0.8890213 0.08151213 204 204 197
4.44459656494291 2.01483745070019 -0.357336819171906 0.342658 -0.9149503 0.2131937 207 207 199
4.4425083162132 2.01370317431011 -0.355121821165085 0.5308354 -0.8462388 -0.04575637 202 202 197
4.44468770044477 2.0148863265089 -0.35566446185112 0.3818454 -0.914104 0.1364107 207 206 201
4.43291000145108 2.00440735312023 -0.352933526039124 0.2955402 -0.952094 -0.07856861 187 189 188
4.43411085622937 2.00480765791454 -0.352844566106796 0.3897569 -0.9147004 -0.1068308 184 187 189
4.43417761343152 2.0048742959074 -0.351321190595627 0.299259 -0.954048 0.01537884 191 194 193
4.43630806224973 2.00552815886059 -0.349304109811783 0.485301 -0.8723189 0.05952019 196 198 197
4.43802491443784 2.0068091818861 -0.349820077419281 0.6878541 -0.7253209 -0.027681 190 191 188
4.43861202018888 2.00737399549999 -0.347538352012634 0.6619023 -0.7272528 0.1816277 194 196 194
4.44233927744062 2.01271361799755 -0.352043956518173 0.590371 -0.789871 -0.1660298 205 205 199
4.44167212265165 2.01187962980786 -0.350754112005234 0.6577394 -0.7454767 -0.1079043 205 205 198
4.44411835687787 2.01368088217297 -0.351554691791534 0.5356721 -0.8282437 -0.1645227 199 201 194
4.44098267572553 2.01136071177044 -0.34974592924118 0.7146012 -0.6994129 0.01290972 206 206 199
4.44086412208707 2.01114577742138 -0.34724035859108 0.7872156 -0.5926438 0.1704844 202 203 198
4.44257650392682 2.01248747797527 -0.349953502416611 0.5935702 -0.8005195 -0.08272234 205 205 197
4.44411841648252 2.01266903372326 -0.349330812692642 0.5565826 -0.8304839 0.02263423 201 201 195
4.44624218958051 2.01578254194775 -0.353267103433609 0.470778 -0.8767404 -0.09846003 203 205 197
4.44591531770856 2.01364988775768 -0.34760507941246 0.5569788 -0.7172445 0.4187301 206 205 197
4.44807693975599 2.01558024378338 -0.34895721077919 0.6521344 -0.7309311 0.2011478 204 203 195
4.43462977426679 2.00586027594128 -0.345935672521591 0.2007402 -0.8480793 0.4903721 200 201 202
4.43381438272626 2.006690568643 -0.344230681657791 0.1063078 -0.6855933 0.7201809 200 200 197
4.4367350699249 2.00720948668041 -0.344727337360382 0.4145578 -0.7237504 0.5516586 205 206 205
4.43444690721662 2.00936419458904 -0.343113780021667 0.01362627 -0.3827142 0.9237663 210 210 205
4.43654606359632 2.00948888750591 -0.342903763055801 0.2952781 -0.4795628 0.8263355 196 196 193
4.43584553020627 2.01050085516491 -0.342703610658646 0.1145212 -0.3123077 0.9430529 207 206 202
4.43749121444852 2.01107902021923 -0.342392265796661 0.3163891 -0.2458561 0.9162165 199 200 199
4.43897012489469 2.01122350187817 -0.342992722988129 0.4585342 -0.283474 0.8422523 187 191 191
4.43805459755094 2.01300639601269 -0.342140227556229 0.3492555 -0.138797 0.9266909 204 203 200
4.4387988211456 2.01513535471478 -0.342934906482697 0.3639342 -0.04492368 0.9303407 192 195 188
4.44106427448423 2.01305086107769 -0.345283329486847 0.6455817 -0.4383152 0.6253832 191 196 191
4.44293234365613 2.01534146757641 -0.345298141241074 0.4860825 -0.4174426 0.7677665 216 216 207
4.44060060995252 2.01534885855236 -0.343884289264679 0.4515079 -0.1572919 0.8782938 217 217 212
4.43895897882611 2.01405901403942 -0.342837035655975 0.3872976 -0.1039168 0.9160796 188 189 184
4.44242826717527 2.01543778868237 -0.344527184963226 0.4599388 -0.3180935 0.8290192 196 195 181
4.44567511099012 2.01356977911511 -0.346261829137802 0.5214165 -0.620878 0.5853507 210 209 201
4.45256922262342 2.0201080510191 -0.393452852964401 0.3765003 -0.9167471 -0.1335002 174 174 158
4.44683156030805 2.01646084280529 -0.392429858446121 0.3530968 -0.9352689 -0.02438476 180 179 163
4.44632003324659 2.0165497729353 -0.38742607831955 0.3874459 -0.9207984 0.04490025 182 181 164
4.44749871509702 2.01588267775097 -0.390072524547577 0.3555707 -0.9344985 0.01679347 183 181 166
4.45047876852185 2.01786930056133 -0.391673743724823 0.3590503 -0.9274547 -0.1044545 184 185 169
4.45341429727704 2.01899606676617 -0.391362398862839 0.3765003 -0.9167471 -0.1335002 184 182 170
4.45163521783979 2.01823992224255 -0.38767072558403 0.3003085 -0.95251 0.05039365 189 188 173
4.45245358961255 2.01860470266857 -0.387644052505493 0.3014757 -0.9529957 -0.03019437 190 188 174
4.45470414178998 2.01901084871807 -0.389049530029297 0.2938541 -0.9453264 -0.1414486 191 190 174
4.44997832792432 2.01789528818646 -0.385057657957077 0.3051862 -0.9493542 0.07475248 188 186 171
4.44551942365796 2.01592714281597 -0.383912354707718 0.433856 -0.898362 0.06866284 190 190 174
4.44659248607785 2.016988939958 -0.383734434843063 0.3992565 -0.9118111 0.09589007 192 190 175
4.45479307191999 2.01946300955334 -0.385046541690826 0.2304696 -0.9723766 0.03697839 193 191 177
4.45136830824048 2.01888484449902 -0.381510555744171 0.2958294 -0.9286301 0.2238996 191 191 173
4.45271155851514 2.01877374144116 -0.382146567106247 0.2438449 -0.9498814 0.1956144 198 198 184
4.45440552251966 2.01903421373882 -0.383782088756561 0.2030619 -0.9730651 0.1091333 196 195 182
4.45412597673566 2.01994127722302 -0.38125479221344 0.1474754 -0.9588024 0.242794 199 197 183
4.44076035040052 2.01719469519177 -0.379108726978302 0.4414246 -0.8252169 0.3523653 193 192 177
4.4418945075813 2.01707238646069 -0.379186570644379 0.4019127 -0.8496913 0.3413077 189 188 171
4.4403378130737 2.01637191267529 -0.376284390687943 0.4753456 -0.8797799 0.005807952 198 197 185
4.44388333576352 2.01768083067455 -0.375655353069305 0.3143557 -0.9452985 0.08712759 194 194 178
4.44099012630613 2.01595670671978 -0.373660206794739 0.4895582 -0.8695011 -0.06557963 194 193 179
4.44241044538648 2.01671881170788 -0.373855918645859 0.4874978 -0.8679554 -0.09486488 197 196 182
4.44282857196958 2.01703900785961 -0.371836602687836 0.4626786 -0.881311 -0.09601775 198 195 182
4.44331780689389 2.01837343664684 -0.371169447898865 0.4050751 -0.9084647 -0.1029851 220 219 214
4.4449931146446 2.01695007772961 -0.379827797412872 0.3247589 -0.9015737 0.2858261 194 193 178
4.44905540960462 2.01859576197186 -0.379620254039764 0.3461158 -0.9174653 0.1961154 187 185 166
4.44909993427427 2.01868469210186 -0.381488293409348 0.3411298 -0.9185923 0.1995458 194 194 177
4.44652018564374 2.01761729212322 -0.378093153238297 0.3412537 -0.9234876 0.1752615 199 198 185
4.44685379284055 2.01864022703686 -0.377085000276566 0.3145114 -0.9382247 0.1442811 202 200 187
4.44822148101957 2.01868481131115 -0.375617235898972 0.3512108 -0.9342988 0.06112974 185 183 164
4.45612750070722 2.0199597546629 -0.381710678339005 0.08060924 -0.9852793 0.150754 202 199 187
4.45240900533826 2.02062398882427 -0.377102792263031 0.3199303 -0.9261801 0.1995869 197 196 179
4.45154616850049 2.0201969811491 -0.378063499927521 0.3184784 -0.9195818 0.2300886 185 183 164
4.45052323358686 2.02073068113842 -0.376684695482254 0.3848146 -0.9103585 0.152201 190 188 171
4.45424160974652 2.02098865004101 -0.377325177192688 0.1699018 -0.9513496 0.2570356 198 197 180
4.45448169725568 2.02200574369946 -0.37555792927742 0.1790216 -0.9723763 0.1497848 202 200 184
4.45244691389234 2.02134222479382 -0.375016778707504 0.3868376 -0.9220922 0.01012925 198 195 179
4.45224306600721 2.02132374735394 -0.374134629964828 0.4149413 -0.9075228 -0.06500851 190 188 170
4.45385906713636 2.02139789553204 -0.372592747211456 0.3763134 -0.9228615 -0.08194432 200 199 188
4.45473382490308 2.02079004736462 -0.369864761829376 0.4211603 -0.9011379 -0.1028321 205 202 189
4.44140527265699 2.01579362841168 -0.368278384208679 0.5338402 -0.7795166 -0.3276711 191 193 182
4.44235411899717 2.01738006563702 -0.369583070278168 0.461021 -0.8590535 -0.2224562 209 209 203
4.45047876852185 2.01875144930401 -0.369723916053772 0.3768534 -0.9107538 -0.1688464 204 203 189
4.44723186510236 2.01859576197186 -0.369924068450928 0.2824404 -0.9487537 -0.1417529 202 200 190
4.4485661746803 2.01739484758892 -0.365921050310135 0.5504065 -0.7846953 -0.2851422 198 198 186
4.45240614431531 2.01958913298168 -0.368337690830231 0.5008543 -0.8532488 -0.1452982 204 202 189
4.45224676149518 2.01942975016155 -0.365687549114227 0.5846779 -0.7911796 -0.1794061 204 203 194
4.45288059728772 2.0204194256834 -0.367344349622726 0.5361413 -0.8342751 -0.1285985 210 210 201
4.45341429727704 2.02046389074841 -0.365520745515823 0.5505072 -0.8240892 -0.1334867 206 206 198
4.45647213476331 2.02172035666027 -0.369812846183777 0.2650179 -0.9640207 -0.02073008 204 202 190
4.4563832046333 2.02187604399243 -0.365353941917419 0.4085701 -0.9127204 -0.003453176 205 204 195
4.45228753107221 2.01756543608227 -0.361451029777527 0.7426302 -0.6655772 -0.07421173 196 195 183
4.45304069536359 2.01854247541943 -0.361989200115204 0.6939221 -0.7104312 -0.1173016 201 200 190
4.45280275362165 2.01951868029156 -0.364119708538055 0.6044481 -0.7659818 -0.2188936 201 201 190
4.45470414178998 2.0208085248045 -0.362162679433823 0.5581027 -0.815464 -0.153427 201 201 189
4.45199987905652 2.01705677004376 -0.359649688005447 0.7012755 -0.7081721 0.08188374 209 208 200
4.45799551027448 2.01984114141979 -0.389094024896622 0.2929837 -0.9330138 -0.2089159 174 173 151
4.45577154176862 2.01981896849194 -0.387248188257217 0.2480643 -0.9668422 -0.06066594 190 188 172
4.45803997533948 2.02101988287487 -0.38920521736145 0.2697565 -0.9390937 -0.2129187 191 190 175
4.46081981676252 2.02128667326489 -0.389538794755936 0.2515281 -0.9363551 -0.2448932 185 183 167
4.46488962190778 2.0219983527235 -0.389049530029297 0.293441 -0.9072511 -0.3013101 185 183 166
4.45888504999311 2.01948530169048 -0.382555782794952 0.06335249 -0.9977496 0.02195842 198 194 183
4.46251735704572 2.0202266642622 -0.38128075003624 0.1973393 -0.977145 -0.07902473 196 195 182
4.46666870134504 2.02110881300488 -0.383845627307892 0.3635752 -0.9275948 -0.08591243 198 196 183
4.46625063436658 2.0214245984129 -0.381870806217194 0.4170051 -0.9089041 0.000166325 198 197 183
4.46655759828717 2.0216869780592 -0.38549131155014 0.3629631 -0.915831 -0.1717886 196 195 181
4.46760270612867 2.02273220510998 -0.387581765651703 0.4161297 -0.8634049 -0.2852508 194 193 179
4.47052345293195 2.02511925192394 -0.388797521591187 0.4835191 -0.772804 -0.4110757 189 186 168
4.47147223966748 2.02629048319378 -0.389894634485245 0.4550782 -0.7372788 -0.4993233 185 182 164
4.47061607854993 2.02466697187939 -0.387248188257217 0.4471512 -0.8529065 -0.2694555 189 186 170
4.47258422392041 2.02689094038525 -0.389027297496796 0.4424424 -0.7435985 -0.5013042 184 180 163
4.46782515066297 2.02215404005566 -0.384868621826172 0.4253477 -0.8908086 -0.1598105 194 192 176
4.47196159380109 2.02513403387585 -0.386825650930405 0.4215861 -0.8605223 -0.2859485 192 190 174
4.4724063636604 2.02516371698895 -0.385572850704193 0.4096383 -0.8801967 -0.2396877 187 185 170
4.47031590955884 2.02313250990429 -0.383193284273148 0.4167877 -0.9061352 -0.07215995 196 194 179
4.4720505239311 2.02339941950359 -0.381154716014862 0.3477402 -0.9353549 0.06471372 197 197 182
4.47021803873212 2.023096985536 -0.381541699171066 0.3743373 -0.9262377 0.04421912 195 195 178
4.47396299856336 2.02535635920086 -0.384824156761169 0.3905688 -0.8920569 -0.2273556 190 190 175
4.47654280679853 2.02538604231396 -0.383237779140472 0.3353676 -0.9404632 -0.05529458 195 195 184
4.47826633470685 2.02597910852947 -0.381443828344345 0.3891663 -0.914731 0.1087057 194 194 186
4.47400758283765 2.03113848658123 -0.391406863927841 0.4290291 -0.7213575 -0.5436703 198 196 187
4.47778818624646 2.02775818796673 -0.386781185865402 0.3511909 -0.832125 -0.4292237 192 192 178
4.44051567333371 2.0606274077467 -0.344571679830551 0.05198392 0.06936485 0.996236 217 216 208
4.48199126737745 2.02735788317242 -0.381176978349686 0.4845812 -0.8539909 0.1894217 199 198 189
4.48303649442823 2.03202814550915 -0.388515800237656 0.73308 -0.2407224 -0.6361182 190 188 175
4.48321447389753 2.03483015986004 -0.388159990310669 0.8016287 0.01751731 -0.5975655 207 207 205
4.47849974649579 2.02749139757672 -0.384557276964188 0.36179 -0.8956118 -0.2588196 193 195 186
4.48438570516736 2.02930004091778 -0.383771508932114 0.6618692 -0.7185495 -0.2135784 195 195 188
4.48263618963392 2.02718002291241 -0.383000552654266 0.5080596 -0.8608845 -0.02744674 191 190 182
4.4855717183891 2.03149432631054 -0.383578777313232 0.9184987 -0.2822454 -0.2769434 209 210 207
4.48405954855115 2.03629798384228 -0.383756667375565 0.903192 0.2583589 -0.3427751 211 212 211
4.48290309923322 2.03707642050305 -0.381710708141327 0.9185905 0.2762462 -0.2826295 222 223 223
4.48508248346479 2.03429645987072 -0.386692225933075 0.8511782 0.1109249 -0.5130218 197 197 192
4.48445985334546 2.03598660917797 -0.384824156761169 0.903192 0.2583589 -0.3427751 214 213 212
4.48165771978528 2.03861076326885 -0.388471335172653 0.8004814 0.07577445 -0.5945484 202 204 202
4.48147985952527 2.03914458246746 -0.385224461555481 0.8588557 0.2261163 -0.4596067 218 218 217
4.4823249341789 2.03852183313885 -0.382600247859955 0.8893592 0.2884184 -0.3547606 220 222 219
4.48050127046735 2.05088669748821 -0.390472829341888 0.9486872 -0.0998799 -0.3000277 190 189 190
4.48130188005597 2.05317730398693 -0.389071762561798 0.9426566 -0.1522279 -0.2970273 198 198 202
4.48170218485028 2.05844790430584 -0.389094024896622 0.9562352 -0.1565639 -0.2471879 208 208 208
4.48143527525098 2.05150944681683 -0.3875373005867 0.9427913 -0.1494154 -0.2980261 190 192 193
4.48334786909253 2.05506760569134 -0.383133977651596 0.9611562 -0.1145382 -0.251117 202 204 200
4.48299202936322 2.0573805043272 -0.3875373005867 0.9562352 -0.1565639 -0.2471879 205 207 207
4.48348126428754 2.06116110773602 -0.387092530727386 0.9565946 -0.1906906 -0.2203721 216 219 219
4.48363695161969 2.05686897726574 -0.383823394775391 0.9635965 -0.1348069 -0.230887 204 205 202
4.48357031362684 2.05973774881878 -0.384690701961517 0.9665294 -0.1503632 -0.2078744 203 209 210
4.45835135000379 2.0199300715498 -0.380346715450287 -0.02247163 -0.9879869 0.1528951 200 199 184
4.45849595087201 2.02066404314556 -0.377896726131439 -0.0938786 -0.9673106 0.2355781 196 195 181
4.45652768629224 2.02113098593273 -0.376195430755615 0.011296 -0.9629764 0.2693489 191 190 173
4.46004149931104 2.0200635859541 -0.377796649932861 -0.07876025 -0.9842341 0.1583669 200 199 189
4.46319935339124 2.02046389074841 -0.380420833826065 0.2481338 -0.9656559 -0.07706065 196 195 181
4.46406672018201 2.02021927328625 -0.379864871501923 0.3410767 -0.9379063 -0.06323277 196 195 184
4.46290586012037 2.01938743086376 -0.377769947052002 0.1741221 -0.9824826 0.06640422 191 190 179
4.46309564130933 2.01939637156048 -0.37569135427475 0.04711119 -0.9658208 0.2548936 192 192 184
4.46426687257917 2.01984114141979 -0.376907080411911 0.320835 -0.9439933 0.07708094 189 189 175
4.46666870134504 2.02268774004498 -0.379086494445801 0.4797163 -0.8772463 0.01763821 201 201 189
4.4660793306175 2.02192050905743 -0.378085762262344 0.5077782 -0.859899 -0.05229608 192 193 179
4.46671316641004 2.02150911779919 -0.375706195831299 0.5024748 -0.8577642 0.1084413 196 195 186
4.46236548441083 2.02126450033703 -0.373226523399353 0.06028915 -0.9241185 0.3773199 202 200 191
4.46497855203778 2.02046389074841 -0.375261396169662 0.3309866 -0.9221717 0.200118 194 191 182
4.45901844518811 2.02144236059704 -0.374861091375351 -0.1229899 -0.9577788 0.2598715 202 200 188
4.45657215135724 2.02219850512066 -0.371947795152664 0.113518 -0.9920535 -0.05425414 193 192 179
4.45812890546949 2.02250987978497 -0.372726172208786 0.05069957 -0.9958931 0.07501044 193 192 179
4.46028599756391 2.02213174791851 -0.371391832828522 0.1089261 -0.9756457 0.190396 196 196 185
4.46480808275373 2.02298421354809 -0.37184402346611 0.2974854 -0.7962442 0.5267804 208 206 201
4.46658608930738 2.02349466772595 -0.371626943349838 0.2888117 -0.781205 0.5534497 209 208 201
4.46453378217847 2.02455574961224 -0.370902568101883 0.324648 -0.7426291 0.5857522 209 207 200
4.47229514139325 2.02442235441723 -0.379909336566925 0.3884144 -0.9086609 0.153198 200 200 188
4.4685367109123 2.02285451384106 -0.375661700963974 0.5156556 -0.8564098 0.02571795 196 196 187
4.47227284925611 2.02428895922222 -0.37841933965683 0.3941173 -0.8954664 0.2069094 200 199 188
4.47287330644757 2.0250228116087 -0.377329617738724 0.4282352 -0.8799461 0.2056927 208 207 203
4.47213206308515 2.02529711218395 -0.376017540693283 0.4729029 -0.8733124 0.1169975 210 211 207
4.47351822870404 2.02411097975292 -0.380331873893738 0.369552 -0.9214222 0.1200516 197 197 184
4.47618684785993 2.0256788203291 -0.379686951637268 0.4300601 -0.8409265 0.3284675 199 199 191
4.47439298647077 2.02479297609844 -0.379457145929337 0.4005478 -0.8928589 0.2058264 198 198 192
4.47678003328473 2.02658695669689 -0.379397839307785 0.4551729 -0.8210177 0.3445976 203 203 197
4.4752083780113 2.02651280851879 -0.378819644451141 0.4537886 -0.8399841 0.297494 203 203 196
4.47456345575483 2.02562326880016 -0.377196192741394 0.4717287 -0.833662 0.2871927 213 213 209
4.47460804002912 2.02577895613232 -0.376529037952423 0.5050089 -0.8264198 0.2489905 210 210 204
4.47636482732923 2.02700204344311 -0.377494186162949 0.5017129 -0.7731878 0.387898 205 204 197
4.47053823488385 2.02379972429791 -0.373422980308533 0.4715918 -0.8646163 0.1733199 205 205 201
4.47236177938611 2.02526742907086 -0.374179124832153 0.5007437 -0.8462695 0.1818891 204 205 201
4.4708274366203 2.02544540854015 -0.370457798242569 0.3334898 -0.7588024 0.5594672 208 209 202
4.47589335458905 2.02711779566326 -0.375599443912506 0.5997217 -0.7692368 0.2204734 208 208 203
4.47529742735059 2.0265572735838 -0.37535035610199 0.5738485 -0.792067 0.2081532 214 215 211
4.47505269067914 2.02686876745739 -0.37419393658638 0.5893138 -0.7763706 0.2235126 215 216 211
4.47458574789197 2.02699095697918 -0.37143075466156 0.5352665 -0.7350098 0.4162334 208 208 200
4.47307345884473 2.02664632292309 -0.370635718107224 0.4529661 -0.7138745 0.5340459 211 211 205
4.47821078317792 2.02793616743603 -0.378241419792175 0.4585128 -0.753839 0.4706303 205 205 197
4.47725436704786 2.02833647223034 -0.377218425273895 0.5030159 -0.7513191 0.4271939 207 205 198
4.47834405916364 2.02853650541821 -0.377329617738724 0.4766639 -0.7467682 0.4638197 203 201 193
4.4755642177406 2.02771372290173 -0.373704671859741 0.6605033 -0.7075505 0.2512125 211 211 205
4.47816619890363 2.03155548067608 -0.371347367763519 0.6140276 -0.7559897 0.2268255 203 202 191
4.47725448625715 2.03044909925976 -0.370924830436707 0.6615081 -0.6883045 0.2977313 206 205 194
4.46106443422467 2.02104205580273 -0.369390338659286 0.2221791 -0.9483659 0.2263595 187 188 179
4.45728383081586 2.02246529551067 -0.365609705448151 0.4233797 -0.9043205 0.05435135 200 201 192
4.45941874998243 2.02259880991497 -0.366855084896088 0.4103901 -0.8910635 0.1938708 197 197 185
4.46044621484906 2.02341718168774 -0.3653784096241 0.4877698 -0.8488737 0.2037006 203 203 190
4.4620578052345 2.0233400532774 -0.368322849273682 0.4929064 -0.8100739 0.3175272 198 199 186
4.46602377908857 2.0268686482481 -0.367544502019882 0.4207452 -0.8158904 0.3966061 205 206 194
4.46431133764417 2.02593464346447 -0.365075975656509 0.5029752 -0.8553893 0.1237947 209 208 197
4.46475610750348 2.02643508406201 -0.365442931652069 0.4942513 -0.851973 0.1727938 206 206 196
4.45663151758344 2.02157575579205 -0.363660097122192 0.5005345 -0.8608775 -0.09140654 205 205 196
4.45628306883008 2.02109391184368 -0.359768271446228 0.531273 -0.817654 -0.2217906 204 204 195
4.45779535787732 2.02204281778851 -0.361918032169342 0.5022873 -0.8532223 -0.1404248 201 201 188
4.46026382463605 2.02424449415722 -0.362006992101669 0.5142896 -0.8541711 -0.0767979 210 209 201
4.46106443422467 2.02487821074047 -0.36368602514267 0.5009448 -0.8609812 0.0881235 210 210 200
4.46059737222821 2.02466697187939 -0.362229406833649 0.5147094 -0.8539239 -0.07673551 208 207 199
4.45834026353986 2.02175373526135 -0.35969415307045 0.5084851 -0.825777 -0.2439985 202 203 195
4.45924088972242 2.02277667017498 -0.360539227724075 0.5489819 -0.8059057 -0.2216638 193 194 181
4.46077535169751 2.02435559721508 -0.35982757806778 0.5513204 -0.8034694 -0.2246835 203 205 195
4.46424469965131 2.02600879164257 -0.363741636276245 0.4897467 -0.8695728 0.06317687 208 208 200
4.46494886892469 2.0266758868269 -0.361710488796234 0.4878746 -0.872343 -0.03156009 206 207 196
4.46244320886762 2.0250672766737 -0.359671920537949 0.5346715 -0.8255633 -0.1804764 203 203 195
4.46409890669019 2.025573796945 -0.359713912010193 0.5481943 -0.8207435 -0.1608198 202 203 193
4.4665174247566 2.02759808989086 -0.359720826148987 0.5894216 -0.8075117 -0.02251807 207 208 199
4.46513423936994 2.0267797181181 -0.359160423278809 0.6075196 -0.7812492 -0.1434215 204 205 193
4.46876654642255 2.02700204344311 -0.369167923927307 0.2613403 -0.7472925 0.6109461 207 207 195
4.4700757028404 2.02756256552258 -0.369354754686356 0.3145387 -0.7277427 0.6094719 203 203 192
4.47307345884473 2.02746171446362 -0.369805455207825 0.4296558 -0.7167451 0.5492471 208 208 200
4.46668348329694 2.02749139757672 -0.364052981138229 0.4646385 -0.8821799 0.07661348 211 210 203
4.4667798044029 2.02764696569958 -0.361517727375031 0.5324321 -0.8464584 0.004915505 207 208 197
4.47022697942884 2.02869219275036 -0.367181271314621 0.3637641 -0.8284115 0.4259226 204 205 194
4.46802530306012 2.02842540236035 -0.36625462770462 0.4307995 -0.8673097 0.2493706 211 211 202
4.47995266931684 2.08490735979595 -0.348011285066605 0.2490494 -0.3653856 0.8969213 211 210 205
4.470649457151 2.02944845648327 -0.365631937980652 0.4147118 -0.8543484 0.3132139 210 210 200
4.47422990816266 2.02919036837139 -0.369612693786621 0.5045063 -0.6800811 0.5319428 209 208 197
4.47503051775129 2.03056032152691 -0.369256883859634 0.5856621 -0.7034187 0.4027431 210 210 201
4.47625372427137 2.03165001364269 -0.367600083351135 0.528192 -0.7721545 0.3532573 207 208 199
4.477187729055 2.03265077562847 -0.36736661195755 0.4942327 -0.8176165 0.2953598 209 208 200
4.47799942510755 2.03300661535778 -0.365820974111557 0.4428061 -0.8429299 0.3056009 214 213 207
4.47698757665784 2.03242845030346 -0.365787625312805 0.4846866 -0.8202755 0.303689 217 217 213
4.47015283125074 2.02955216856518 -0.36174014210701 0.5358454 -0.8304899 0.1521717 204 205 195
4.47124991434247 2.03029341192761 -0.3639195561409 0.4915114 -0.8513219 0.1834874 207 208 196
4.47124991434247 2.03047139139691 -0.36289656162262 0.5048507 -0.8428062 0.1865569 205 206 194
4.46760270612867 2.02815849276104 -0.359382808208466 0.614509 -0.7887824 -0.01417847 211 211 206
4.47013793008954 2.02953738661328 -0.358893573284149 0.5986336 -0.7984962 0.06357414 205 204 198
4.4720505239311 2.03172308893719 -0.35982757806778 0.563581 -0.7921842 0.2341382 209 209 202
4.47088513391645 2.03112072439709 -0.359747529029846 0.5738152 -0.7972215 0.1875474 213 213 209
4.47312912958295 2.03068263025799 -0.364197552204132 0.4667542 -0.8428856 0.2677395 208 208 197
4.47418544309766 2.03183907957592 -0.362151563167572 0.5120064 -0.8163962 0.267108 210 210 204
4.47812912481458 2.0336589285902 -0.364127099514008 0.4955976 -0.8065299 0.3223237 213 213 206
4.47873101251752 2.03541726561108 -0.361419886350632 0.5552766 -0.7152725 0.4243268 205 205 202
4.47594974058301 2.0336144635252 -0.35969415307045 0.5607788 -0.7670823 0.3116277 205 204 198
4.48039016740949 2.02671308012524 -0.380843371152878 0.3780429 -0.8978191 0.2258416 192 193 185
4.48308095949323 2.02842540236035 -0.381021291017532 0.5254637 -0.8266796 0.2012182 202 201 194
4.48081264513166 2.02833647223034 -0.378775149583817 0.3937041 -0.7639526 0.5112471 204 203 196
4.48005650060804 2.02882570715466 -0.378019034862518 0.3698592 -0.7778856 0.5080337 203 203 195
4.4826307060066 2.03109402151623 -0.375834047794342 0.3344685 -0.7672983 0.5471601 202 202 195
4.48334786909253 2.03051585646191 -0.376684695482254 0.3805724 -0.7659695 0.5181267 207 206 199
4.48503801839978 2.03127200098553 -0.380776673555374 0.7222083 -0.6704063 0.1702071 207 208 204
4.48620340841443 2.0315654942564 -0.379869312047958 0.7832968 -0.5953846 0.1787827 203 203 198
4.48454878347547 2.03070492239514 -0.378208070993423 0.5938755 -0.7399704 0.3158414 206 206 201
4.4855272533241 2.03220600576916 -0.37739634513855 0.6213057 -0.7216774 0.3052227 206 207 201
4.48626360910566 2.03338713141003 -0.375681459903717 0.6927599 -0.6767356 0.249224 203 204 197
4.48779568689496 2.03523058386364 -0.378063499927521 0.8358475 -0.5266504 0.1549139 204 204 202
4.48601660745771 2.03723198862591 -0.378241419792175 0.9879209 0.0564548 -0.1443095 217 218 219
4.47923371809156 2.03271741362133 -0.37368243932724 0.4363332 -0.809083 0.3936978 203 204 191
4.48017511385114 2.03391844721356 -0.374097585678101 0.3649783 -0.832574 0.4166669 211 211 202
4.48334786909253 2.03347367735424 -0.373615741729736 0.349805 -0.838622 0.4175519 205 206 198
4.4837258817497 2.03300661535778 -0.373660206794739 0.3429626 -0.838251 0.4239245 204 204 195
4.48060808199079 2.03368265123882 -0.371498584747314 0.3446241 -0.8940015 0.2863487 200 201 187
4.47854433077008 2.03291768522778 -0.371525257825851 0.5064289 -0.8149046 0.2818872 207 205 194
4.48259172456891 2.0337182948164 -0.370872914791107 0.3937839 -0.8475564 0.3557842 206 205 193
4.48695061224134 2.03466493578472 -0.373463213443756 0.7631679 -0.5772451 0.2904529 195 195 182
4.48717293756635 2.03491920919933 -0.37470543384552 0.7580351 -0.5756681 0.3065763 207 208 205
4.48761770742566 2.03460783453503 -0.37406051158905 0.7580351 -0.5756681 0.3065763 204 203 196
4.48526046293409 2.03794366808453 -0.370635718107224 0.940382 -0.08293602 0.3298534 213 215 213
4.48152432459027 2.03425199480572 -0.36778911948204 0.4447511 -0.8608927 0.2471038 209 209 201
4.48276958482892 2.03456325026074 -0.367967039346695 0.5330982 -0.7822797 0.3222496 211 210 204
4.48042724149854 2.03391093702831 -0.36596554517746 0.4030326 -0.8403397 0.3624829 218 218 211
4.48115739839704 2.03475231619396 -0.365253865718842 0.4319403 -0.8053938 0.4059167 224 223 219
4.4846488000694 2.03540844412365 -0.36777800321579 0.6764951 -0.651779 0.3428389 211 211 204
4.48576447981031 2.0369502970747 -0.369508922100067 0.9071471 -0.2327253 0.3506039 206 205 200
4.48539385812909 2.0370096633009 -0.368322849273682 0.9165925 -0.2963114 0.2684356 213 212 213
4.48458430784375 2.03723198862591 -0.365351736545563 0.8008118 -0.3771591 0.4652436 217 217 219
4.48051605241925 2.03557152243176 -0.363445103168488 0.5202006 -0.7129478 0.4702094 221 222 221
4.48254725950391 2.03574199171581 -0.36429762840271 0.5841547 -0.6297858 0.5119895 219 220 219
4.47987864034803 2.03596443625012 -0.362385034561157 0.5727733 -0.6821633 0.4545151 216 218 218
4.4807904722038 2.03685397596874 -0.362674176692963 0.6055896 -0.5602863 0.5651022 225 226 227
4.47930035608442 2.03629798384228 -0.361428797245026 0.6005351 -0.6571587 0.4555216 215 215 214
4.48099050539167 2.03850705118694 -0.361428797245026 0.7629951 -0.3210552 0.5610366 224 225 224
4.48352584856183 2.0468836495451 -0.380732178688049 0.9706954 -0.09183716 -0.222073 201 204 203
4.48374817388684 2.04689259024182 -0.37386479973793 0.992844 0.08101598 0.08773413 190 195 195
4.48392615335614 2.04603857489147 -0.371614217758179 0.9842055 0.1289005 0.1213428 176 184 185
4.48367033022077 2.04978579969921 -0.371680945158005 0.9856749 -0.01378622 0.1680921 198 199 199
4.48483047502668 2.04750639887371 -0.375380009412766 0.9984607 0.008537774 0.05480208 203 205 204
4.48455772417218 2.04983694048443 -0.375421524047852 0.9956156 -0.05055664 0.07869978 209 210 208
4.48457107561261 2.05102009268322 -0.377084970474243 0.9933874 -0.1143076 0.01073561 211 212 209
4.48444495218427 2.05134636850872 -0.375365197658539 0.989678 -0.1256137 0.06898281 214 214 212
4.48512694852979 2.05493421049633 -0.376417815685272 0.9951987 -0.08629284 -0.04618509 207 208 207
4.4856163026634 2.05484528036633 -0.376328885555267 0.9951987 -0.08629284 -0.04618509 206 207 206
4.48330340402753 2.05889267416515 -0.37944233417511 0.9855078 -0.05341742 -0.1609996 209 210 209
4.48415956514508 2.05100900621929 -0.374093860387802 0.9836881 -0.09718925 0.1513674 210 211 208
4.48334786909253 2.05306620092907 -0.371569752693176 0.9714944 -0.1560461 0.1784609 205 207 204
4.48490462320478 2.0554456183485 -0.373637974262238 0.9816034 -0.1663872 0.09364786 207 208 207
4.48400399702222 2.05137593241253 -0.369712799787521 0.9894269 -0.07804252 0.1222448 202 203 201
4.47614250200422 2.12053901644268 -0.348174393177032 0.006118117 0.4410217 0.8974756 213 215 211
4.4856607677284 2.05875927897015 -0.375172436237335 0.9943184 0.01237792 -0.1057245 207 208 206
4.48441538828046 2.06027156801739 -0.375750660896301 0.9933558 -0.02596831 -0.1121155 213 214 214
4.48517153280408 2.05898172350445 -0.373971551656723 0.9966919 -0.01650065 -0.07957976 210 210 210
4.4856163026634 2.05855912657299 -0.373882591724396 0.9969581 -0.02053067 -0.07518643 209 208 208
4.48492679613263 2.05760282965222 -0.371858835220337 0.9839855 -0.1656276 0.06587904 199 202 199
4.48403725641401 2.04321426840344 -0.365498512983322 0.9144221 0.1884745 0.3582032 222 223 222
4.48468217867048 2.03901106806317 -0.366721659898758 0.9452006 0.02228951 0.3257285 202 209 202
4.48499355333478 2.03963381739178 -0.365120440721512 0.9111598 0.005344089 0.4120186 216 217 219
4.48397061842115 2.04465980024853 -0.368100464344025 0.9755018 0.1787295 0.1282651 192 193 197
4.48388156908185 2.0471802422575 -0.367685347795486 0.9884518 0.07864541 0.1295296 193 194 196
4.48383710401685 2.04734332056561 -0.365980356931686 0.9799547 0.03504282 0.1961144 205 203 205
4.48254725950391 2.04817361326733 -0.366899579763412 0.9940786 0.01698478 0.1073278 214 213 214
4.48196909444959 2.04915208311596 -0.365921050310135 0.9941834 -0.05003155 0.09537379 213 215 212
4.48248062151105 2.04111642332592 -0.361895799636841 0.8295318 -0.01235205 0.5583228 214 218 217
