ply
format ascii 1.0
comment File exported by Rhinoceros Version 7.0
element vertex 496
property float x
property float y
property float z
property float nx
property float ny
property float nz
property uchar red
property uchar green
property uchar blue
end_header
3.46000109481246 1.67473740072765 -0.296669006347656 -0.04856842 0.8885585 -0.4561851 183 185 178
3.42864419760735 1.67358095140972 -0.334786534309387 -0.2012051 0.9739928 0.1041851 191 194 185
3.46576097848446 1.75793320627728 -0.333730190992355 -0.04628812 -0.9610401 -0.2725056 177 180 170
3.40736153590114 1.68172044249096 -0.347774088382721 0.5121072 0.8229944 0.245818 191 190 183
3.40022284033329 1.67598278017559 -0.355023980140686 0.4912589 0.06134614 -0.8688506 195 193 189
3.50051153692038 1.69101626368084 -0.321291953325272 -0.6131448 0.5965126 -0.5179055 198 200 193
3.51568738239438 1.71721375675717 -0.320464670658112 -0.6835684 -0.100638 -0.7229151 193 194 186
3.48490870239765 1.70315874310055 -0.303696513175964 -0.6695045 0.2204035 -0.7093561 194 194 187
3.44759176993829 1.67536009045162 -0.286350160837173 -0.4158494 0.8695586 -0.2663404 180 184 177
3.39208339023025 1.69862199516812 -0.317151069641113 0.8636464 0.4681627 0.1869184 177 178 169
3.4094297574702 1.72103882523098 -0.284882366657257 0.7648352 -0.3774765 -0.5220523 183 183 174
3.49896370860369 1.74292189569988 -0.352043956518173 -0.6054316 -0.3206862 0.7284318 149 150 138
3.47049787136347 1.68932611437359 -0.355535477399826 -0.9419247 0.3358108 -0.003006625 164 167 148
3.41672412919433 1.65899223776379 -0.346306324005127 -0.6022375 0.7840633 -0.150182 191 191 183
3.46258081177802 1.67589379044094 -0.325979948043823 -0.34799 0.9211316 0.1744123 179 181 170
3.39332876967818 1.68412221165219 -0.311035364866257 0.9192564 0.2408284 0.3113988 179 180 168
3.39448519664437 1.74189896078625 -0.352933526039124 0.6832853 -0.3754619 0.6262185 136 134 108
3.47338893319101 1.67420364113369 -0.332651615142822 0.1130583 0.991176 -0.06919531 184 186 181
3.5089631402734 1.6869404980711 -0.335740804672241 -0.519922 0.7075984 -0.4785244 196 197 191
3.46395962553651 1.75880057306805 -0.333808034658432 -0.3832276 -0.8816691 -0.2753112 179 180 168
3.4583554142955 1.69212824793377 -0.286661505699158 -0.1890019 0.9795524 -0.06895948 195 197 191
3.41894802319438 1.7590007254652 -0.335765063762665 0.3093606 -0.9231331 -0.2283007 173 173 163
3.48460724073083 1.67914564104595 -0.319530636072159 -0.6055728 0.678115 -0.4164632 187 190 188
3.47058682757051 1.69311786385098 -0.287884622812271 -0.8778005 0.06411986 -0.4747155 195 195 187
3.47431740964384 1.69115526171246 -0.303084939718246 -0.4360408 0.6882485 -0.5798124 188 188 182
3.45888914874376 1.68000800104656 -0.341725081205368 0.2895303 0.9527023 -0.09236094 175 178 161
3.44483414207206 1.72145397158184 -0.273718446493149 -0.09419471 -0.6985007 -0.709383 167 171 154
3.48464183377654 1.67696125002422 -0.348085433244705 -0.6424115 0.6853781 -0.3428767 182 183 179
3.52823014425666 1.7000008294157 -0.337499678134918 -0.6201233 0.7062295 -0.3415948 173 177 177
3.43844415488274 1.67659801931896 -0.339894086122513 -0.1029218 0.9260761 -0.3630292 198 195 188
3.50897122787864 1.73162455053845 -0.35044276714325 -0.5629916 -0.7248278 0.3970708 145 147 126
3.45528644098521 1.6676653692297 -0.359160423278809 0.30958 0.4052607 0.8601884 195 193 188
3.45537539672659 1.72406334372082 -0.278655469417572 0.03121949 -0.7650762 -0.6431825 180 180 166
3.47067578377754 1.69077164621868 -0.293600022792816 -0.8727381 0.4811076 0.08284751 187 188 180
3.39119383188517 1.72228420467892 -0.350264847278595 0.9520393 0.1573677 0.2624053 176 178 166
3.44692460199439 1.75622088404217 -0.31263655424118 -0.2808644 -0.6947946 -0.6620994 178 177 164
3.47810358794958 1.69235063286343 -0.319219291210175 -0.3490584 0.7190434 0.600945 198 199 193
3.45968974995048 1.67420364113369 -0.326647102832794 -0.504099 0.8419973 0.1921582 181 182 174
3.46653934250207 1.67342526407757 -0.313192546367645 -0.5438854 0.8391479 0.004402155 181 183 179
3.46547187360556 1.68385536165753 -0.296224236488342 -0.7617863 0.6373534 -0.1160275 196 196 188
3.45266224684746 1.67469287605801 -0.326958447694778 0.128659 0.7653065 0.6306764 181 182 178
3.52808188515336 1.71487123461285 -0.342214345932007 -0.9963394 0.02733497 -0.08099808 184 186 182
3.474411923984 1.66219461651364 -0.342169880867004 -0.2263796 0.8844494 -0.408046 187 187 182
3.51875635849864 1.6996449896864 -0.348841547966003 -0.2549972 0.600202 0.7581121 148 154 141
3.48842245208652 1.66477430553951 -0.355958014726639 -0.04483694 0.9789681 -0.1990254 192 191 185
3.39688699933321 1.687947280126 -0.292577058076859 0.7878261 0.03046973 -0.6151436 197 197 189
3.3948854977134 1.69172794313946 -0.296802431344986 0.8802231 -0.06019635 -0.4707268 186 187 178
3.38977054002316 1.71546430082836 -0.327447682619095 0.9090767 0.01648157 -0.4163027 183 182 169
3.39869576560886 1.71971935720959 -0.30713614821434 0.8349679 -0.1755418 -0.5215494 185 184 173
3.46072386073501 1.76768500299969 -0.34943088889122 -0.02103857 -0.9847517 -0.1726891 170 171 158
3.40031179654033 1.67206872196713 -0.345994979143143 0.7614853 0.6355062 0.1275616 190 189 183
3.50432011353404 1.69184232445278 -0.323336690664291 -0.4836314 0.6175874 -0.620231 196 198 193
3.40498197319538 1.71957106085339 -0.291376143693924 0.8828903 -0.2710811 -0.3834316 179 179 167
3.47002640607388 1.68066186399975 -0.307637244462967 -0.6038626 0.5607942 -0.5664448 192 193 185
3.39370683448941 1.72308487387219 -0.321176320314407 0.8290328 0.1160795 -0.5470194 186 186 175
3.5186674060169 1.70240259857693 -0.350353807210922 -0.4355442 0.2183761 0.8732772 150 156 145
3.39902193712623 1.67320287914791 -0.345350027084351 0.9809056 0.1114191 0.159405 189 188 181
3.40050082522065 1.75258476229229 -0.335564911365509 0.159994 -0.9863201 -0.03968046 164 165 150
3.4046706283334 1.71272147388973 -0.284837901592255 0.8601692 -0.271008 -0.4320458 185 186 178
3.42624239305587 1.65739101858654 -0.298848420381546 -0.8326412 0.4300271 -0.3489776 182 188 179
3.43767320512415 1.73567206354656 -0.288707464933395 0.1070893 -0.6674597 -0.7369053 186 185 177
3.4000671679023 1.67880708666363 -0.32415634393692 0.8734927 0.2639949 0.4090441 179 180 166
3.42232834043534 1.69354260654965 -0.267713934183121 0.2564756 0.08875982 -0.9624666 189 190 182
3.44567922161513 1.65605664940396 -0.337544173002243 -0.2594936 0.9603523 0.1019144 189 190 183
3.42984510081441 1.75883395166912 -0.319219291210175 0.2289326 -0.9303986 -0.286266 173 173 156
3.40203160660894 1.69346255751171 -0.28752139210701 0.8831406 0.04124359 -0.4672917 185 184 174
3.4740561010185 1.67424810619869 -0.33251816034317 0.06965957 0.994796 -0.07435298 183 186 180
3.51484230774076 1.73616129847088 -0.319352716207504 -0.7560739 -0.4372222 -0.4870205 186 186 178
3.51251833754213 1.68742472620526 -0.341002345085144 -0.6068802 0.7853414 0.12221 193 194 185
3.40160165595443 1.66112715693035 -0.356224864721298 0.3348439 0.3715218 -0.8659394 200 197 193
3.52613968270452 1.73150003643551 -0.341769576072693 -0.9344457 -0.2098446 0.2877088 186 186 180
3.42993405702145 1.66250599117794 -0.295468091964722 0.1233686 0.990909 0.05366082 180 183 173
3.47877075577707 1.6964425513319 -0.301828444004059 -0.5287436 0.5224216 -0.6689588 192 194 185
3.40217986571223 1.71087569685497 -0.29404479265213 0.9404207 0.002670421 -0.3400026 181 181 170
3.51609404253394 1.70334298105755 -0.329900324344635 -0.6946457 0.4349017 -0.572999 188 189 180
3.50181029232771 1.74825925322094 -0.341680616140366 -0.9127379 -0.3515474 0.208144 136 136 112
3.3852486224714 1.72991955967465 -0.333585649728775 0.9671736 0.1973794 -0.1600517 184 184 177
3.43452268986584 1.66536737175503 -0.28116849064827 -0.6596096 0.7377471 -0.1436815 193 195 189
3.50226989629299 1.68542689772167 -0.329478859901428 -0.7129996 0.6920483 -0.1126975 178 183 179
3.46024572345049 1.67122358770886 -0.313392698764801 -0.2758823 0.9530072 0.1251651 196 196 192
3.39421832802326 1.67678333015957 -0.358448773622513 0.9191533 0.3186012 -0.2316257 201 198 194
3.50032028424175 1.67393679113903 -0.348441243171692 -0.2078172 0.6191868 -0.7572448 187 187 181
3.48287754374177 1.69183171482601 -0.306127965450287 -0.2310546 0.7173389 -0.6572965 196 198 192
3.42458559254737 1.73353708477535 -0.283336758613586 -0.1836756 -0.6782692 -0.7114873 177 177 162
3.49402666332752 1.68154246302166 -0.324230462312698 -0.5178729 0.6635144 -0.5399595 205 205 202
3.51618776338727 1.74065358133831 -0.331973314285278 -0.4927693 -0.8264438 -0.27234 175 175 162
3.4223728204015 1.66479653807202 -0.317440181970596 0.3133461 0.9355109 0.1631981 185 186 177
3.47276624346704 1.67660546989956 -0.316772997379303 -0.4702284 0.8520103 -0.2301383 197 197 192
3.39553042369516 1.68083084316769 -0.299248725175858 0.7997441 0.4365434 -0.4121155 159 164 150
3.40729482340247 1.68243206234493 -0.35328933596611 0.5097906 0.8403208 -0.1843217 191 190 184
3.49669533463747 1.74790341349163 -0.320375710725784 -0.160406 -0.8389215 -0.5200774 183 184 174
3.38990397619636 1.66668689938107 -0.317440181970596 0.4942567 0.8089152 -0.318381 194 192 184
3.43990821818442 1.7193598219923 -0.271639108657837 0.1624062 -0.555416 -0.8155594 180 179 167
3.4130324633661 1.7215058276228 -0.279100239276886 0.7381223 -0.3660133 -0.5667537 185 186 176
3.4539965829681 1.68630159588375 -0.359071463346481 0.2659238 0.7538928 0.6007746 190 189 179
3.41066624465019 1.68532312603512 -0.277596890926361 0.5629231 0.2036683 -0.8010224 198 198 190
3.44651318163232 1.76145810576 -0.321643322706223 -0.01436688 -0.9971534 -0.07401825 181 181 172
3.45797735227824 1.67757285328427 -0.28363698720932 -0.1774878 0.9431576 -0.2809836 187 189 182
3.38458887355954 1.73938602896252 -0.341213583946228 0.9808139 0.07889163 0.1782698 189 190 185
3.42250625284941 1.66495222540417 -0.301650524139404 0.2740235 0.9138584 -0.2996231 190 192 186
3.47040150369138 1.6895336577467 -0.291591107845306 -0.8609544 0.5041115 -0.06803752 188 189 184
3.46289215664 1.75906736345806 -0.331050395965576 -0.4357762 -0.8913216 -0.1250798 174 175 166
3.43083473349542 1.76087994070568 -0.323567003011703 0.1234313 -0.9213526 -0.368611 181 183 172
3.41225410121114 1.75178415270367 -0.319263756275177 0.3196026 -0.9099312 -0.2643469 176 176 160
3.47256164493592 1.76109559031048 -0.333496689796448 0.182005 -0.8299832 -0.527259 183 183 173
3.48940096663863 1.75808889360943 -0.336877018213272 -0.3323457 -0.8537533 -0.4008137 172 173 158
3.52031832056672 1.69494081230679 -0.339375615119934 -0.653576 0.667468 -0.3568262 172 178 174
3.44741385845554 1.67157942743817 -0.351510226726532 0.09631561 0.9022685 -0.4202796 185 186 179
3.41818077916832 1.66725397797146 -0.301383674144745 0.4807749 0.7963644 -0.3669593 176 180 174
3.45206624347338 1.66875065060177 -0.309371888637543 -0.5553951 0.8293177 0.06138741 199 201 197
3.46022348439873 1.66997826786556 -0.334653109312057 -0.24997 0.9513997 0.1798709 180 183 171
3.41844208779366 1.75304622145214 -0.315505385398865 0.3116834 -0.8801485 -0.3580391 175 175 160
3.41699099781544 1.74910432787457 -0.359382808208466 0.3328186 -0.7052432 0.6259903 143 144 124
3.39664978402288 1.72748816700497 -0.31720295548439 0.8267226 0.02904969 -0.5618593 182 181 169
3.39850303026468 1.75100202055493 -0.329419553279877 0.3873487 -0.8231632 -0.4151666 181 180 170
3.43794007281394 1.69021565409222 -0.352889031171799 0.05249934 0.8859046 0.4608871 180 182 172
3.43278064074547 1.65721309872189 -0.308366686105728 -0.8139562 0.5222191 -0.2544848 185 186 178
3.3994815448168 1.73708052130261 -0.30944898724556 0.9186 -0.296628 -0.2611243 181 182 173
3.42575313764245 1.65343249531307 -0.298314690589905 -0.6857346 0.6638638 -0.2984174 188 189 182
3.45061626502865 1.75733274908581 -0.31468254327774 -0.1550524 -0.7197366 -0.6767111 184 156 152
3.52660669999749 1.72719902487316 -0.339612394571304 -0.9911821 -0.1257775 -0.04169079 184 185 178
3.48889688270719 1.6812014648489 -0.323281615972519 -0.2762507 0.6003173 -0.7505363 202 204 198
3.48006061332853 1.75484199018994 -0.322733044624329 -0.233569 -0.7178869 -0.6558079 189 189 178
3.47854836525948 1.76251441927471 -0.334475189447403 -0.1926847 -0.7779991 -0.5979883 189 188 180
3.4674288989845 1.68154246302166 -0.315171808004379 0.7656807 0.3822668 -0.5173057 196 198 194
3.45466375079558 1.76605040522137 -0.341146886348724 -0.2341789 -0.9269259 -0.293204 173 174 156
3.3955971436444 1.69524169655361 -0.331139355897903 0.9030006 0.4263055 0.05341916 185 186 177
3.42526388036639 1.66441852541485 -0.355023980140686 -0.3391019 0.7672858 -0.5443183 195 195 187
3.3888365054372 1.71957106085339 -0.338567167520523 0.9706307 0.1259083 0.2049954 180 181 168
3.5028332831207 1.67816216440716 -0.344794064760208 -0.2746552 0.8851404 -0.3756209 188 191 186
3.41599765660794 1.66736394854107 -0.309444040060043 0.7747497 0.6308931 -0.04167506 190 191 189
3.43344780857296 1.68888134451428 -0.348396778106689 -0.2888578 0.9194172 0.2668954 194 192 180
3.43106824214191 1.6612383791975 -0.310123562812805 -0.04425481 0.9896876 -0.1362348 188 188 183
3.40451495590241 1.69926691742458 -0.283169984817505 0.800185 -0.2419005 -0.5488061 187 188 178
3.41808811816008 1.68680573196926 -0.271568655967712 0.7339948 0.2245693 -0.6409526 186 189 182
3.4292112910989 1.67524886818447 -0.268180936574936 0.6361308 0.4555999 -0.6227089 199 200 196
3.43242481777997 1.6728248068861 -0.267224669456482 0.4910344 0.523685 -0.6961604 200 201 195
3.46649486439855 1.72931171150723 -0.288129270076752 -0.6268873 -0.5786059 -0.5217543 178 178 167
3.41650174053938 1.67135704250851 -0.337321788072586 0.1981252 0.6506876 -0.733043 180 181 165
3.50016460808546 1.66641998978176 -0.356091439723969 -0.2758748 0.7409163 -0.6123202 197 195 192
3.46195812112273 1.68016368837872 -0.282525062561035 -0.6051176 0.6142007 -0.5065474 199 200 194
3.47463431450159 1.72986770363369 -0.301650524139404 -0.2993172 -0.5477048 -0.7812994 180 179 163
3.49558339136274 1.69408524723568 -0.361695647239685 -0.6418645 0.5727872 0.5098283 171 174 165
3.39094920324714 1.70102376432934 -0.317417919635773 0.9478584 0.2809158 0.1505019 180 181 173
3.43676140958996 1.66317314596691 -0.299982607364655 -0.3418532 0.9075248 -0.2439982 184 186 177
3.41903697940142 1.66659790964642 -0.32415634393692 -0.0371895 0.941531 0.3348677 181 181 172
3.39627913626463 1.69562715979138 -0.325535148382187 0.887107 0.4613245 0.01486064 171 172 160
3.45445915273012 1.69356930943051 -0.266255050897598 -0.4594957 0.3331827 -0.8233183 197 197 189
3.51631007956893 1.68923718424359 -0.34083554148674 -0.8011501 0.5943784 0.06980591 183 183 175
3.50763689222367 1.6913572618536 -0.325950294733047 -0.6107774 0.5921547 -0.525646 204 205 202
3.43276581409008 1.68788797350445 -0.351495385169983 -0.3358712 0.9033141 0.2668599 194 194 185
3.43776216133119 1.65472233982601 -0.337188363075256 0.02690462 0.9977722 0.06104766 189 189 185
3.46112786846788 1.71362585516491 -0.267447054386139 -0.3526191 -0.4341907 -0.828938 183 184 176
3.46862980219156 1.68941504450359 -0.296402156352997 -0.8311704 0.5554026 0.02614997 184 186 176
3.46362604162277 1.67911846132794 -0.338189095258713 0.288204 0.9545819 -0.07557701 183 184 171
3.48890726136596 1.71290827484646 -0.299279868602753 -0.7920728 0.3630391 -0.4907374 195 195 188
3.47112056108744 1.7250863382391 -0.291087031364441 -0.5143371 -0.6027223 -0.6100681 183 184 172
3.51248498129279 1.72922278137722 -0.350709617137909 -0.3785759 -0.4243144 0.8225798 155 156 142
3.51128407808573 1.69693184586086 -0.327091872692108 -0.6413505 0.4390254 -0.6292267 198 200 193
3.44003053250344 1.76284808607617 -0.361028492450714 0.1945588 -0.9359716 0.2934351 140 142 126
3.46811830493242 1.67598278017559 -0.322243809700012 -0.06033569 0.9943841 -0.08694775 190 191 181
3.464626793364 1.67885155172863 -0.335798412561417 0.3325438 0.9373784 0.1036165 178 180 169
3.49509413408668 1.67909622879543 -0.349508732557297 -0.2135671 0.9746369 0.06687324 188 189 185
3.49754041674168 1.68074191303768 -0.352711111307144 -0.5919156 0.422469 0.6864079 189 190 188
3.43566058258147 1.66575283499279 -0.281768918037415 -0.6879411 0.7111927 -0.1447134 192 194 188
3.44812550438655 1.72688765020886 -0.281524300575256 -0.07513753 -0.7141463 -0.6959521 185 185 172
3.47040891701908 1.67528594227352 -0.313723802566528 -0.5928023 0.7719613 -0.2294802 191 193 189
3.42610896060796 1.65223158093014 -0.29915976524353 -0.675736 0.707867 -0.2056822 184 187 178
3.42637582736642 1.75984580011883 -0.327469944953918 0.4448442 -0.8583518 -0.2556282 166 168 155
3.39412937181623 1.69074941368618 -0.315127313137054 0.9024388 0.03046201 0.4297399 175 176 165
3.41000797095329 1.75461966486492 -0.339990466833115 0.398497 -0.9080474 -0.1290355 165 163 144
3.43315870183141 1.67702800722637 -0.263977766036987 0.4761671 0.3655001 -0.7997966 204 205 201
3.38896993788511 1.72745848389187 -0.343874871730804 0.9594688 0.2072307 0.1909842 179 179 168
3.3894147189203 1.70658350678005 -0.329093366861343 0.9660972 0.2151924 0.1426483 195 194 189
3.39269718396098 1.69950265379467 -0.32191464304924 0.8056943 0.5790244 0.1248496 175 177 167
3.41525636109144 1.75457519979992 -0.323578119277954 0.3678157 -0.9073905 -0.2033574 176 176 162
3.49372643845708 1.6818649241499 -0.339212089776993 -0.2948431 0.9554949 0.009847954 182 183 173
3.41992653588385 1.66557491512814 -0.315883457660675 0.2972706 0.9486752 0.1079149 182 185 176
3.44149830246896 1.65876979322949 -0.333007425069809 -0.1863173 0.7878975 -0.586944 179 182 174
3.46907457950146 1.76338178606548 -0.354623675346375 -0.2352241 -0.8231875 0.5167513 145 149 126
3.41218738871247 1.67834008427181 -0.340212851762772 0.07691582 0.9078932 0.4120848 190 189 180
3.41530083733232 1.66802120895901 -0.307699501514435 0.7676495 0.627581 -0.1298318 193 193 190
3.471965641329 1.75893396826306 -0.329612284898758 0.0839935 -0.9460042 -0.3130834 173 174 162
3.48731050508649 1.72819978685894 -0.306854456663132 -0.5307409 -0.4678861 -0.7066801 182 182 171
3.47440204078884 1.67683768959561 -0.325717985630035 -0.09344478 0.994845 -0.03939008 193 194 185
3.49421940239699 1.75770337076702 -0.33926397562027 -0.3835589 -0.8705791 -0.3081795 173 175 161
3.43657905011059 1.66554827185192 -0.28927680850029 -0.6841518 0.7293395 -0.0003407358 187 190 184
3.42422606291802 1.67663509340801 -0.341621309518814 -0.8443986 -0.4695543 -0.2578949 201 199 192
3.46480470484675 1.67950541468182 -0.28918781876564 -0.8964716 0.4430929 0.002731687 187 189 184
3.43722842688293 1.66308415623226 -0.314059853553772 -0.4420677 0.896269 -0.03574918 200 201 195
3.41075520085723 1.673438615518 -0.295699387788773 0.3907545 0.9204436 -0.00972066 175 176 168
3.4649826163295 1.67512286396542 -0.306921154260635 -0.5677779 0.4664229 -0.6782904 196 197 191
3.48499765860469 1.6693555781416 -0.344749599695206 0.445682 0.8391033 -0.3118863 187 187 180
3.51613216715486 1.69915575476208 -0.334875494241714 -0.469122 0.5822586 -0.6640027 192 195 189
3.4701642865184 1.67696125002422 -0.337054908275604 0.2420384 0.9381788 0.2474629 186 189 180
3.51051312553317 1.68547136278668 -0.34219953417778 -0.4735853 0.6109936 0.6343531 195 194 187
3.48944544287951 1.66891074867764 -0.349108427762985 -0.4380814 0.8392913 0.3219857 190 190 185
3.48450840132863 1.75711030455151 -0.330138623714447 -0.2065476 -0.9120658 -0.3542233 183 183 172
3.50840191038878 1.68303693028011 -0.337650924921036 -0.4547424 0.7395686 -0.4962335 192 193 185
3.38781351464421 1.73233622999706 -0.344260334968567 0.9180963 0.2682984 0.2917449 163 162 148
3.43040107431442 1.68596804829159 -0.266490787267685 0.4737083 -0.2516675 -0.8439573 193 195 188
3.49024604501755 1.72317374439755 -0.305531233549118 -0.5238301 -0.3103792 -0.7932633 185 185 179
3.48086121546657 1.76231426687756 -0.337232828140259 -0.2920038 -0.7001493 -0.6515557 152 150 119
3.40360315757425 1.66931105347195 -0.299649029970169 0.5033365 0.02368299 -0.8637659 186 188 180
3.43816246240021 1.66223908157864 -0.362362831830978 -0.2806189 0.8490117 -0.4476965 198 196 190
3.43496005571068 1.66388476582089 -0.351421266794205 0.2708657 0.7735674 0.5729095 191 191 185
3.40655352416069 1.67409986944714 -0.309686213731766 0.4582727 0.8849043 -0.08325015 190 190 182
3.44061764011712 1.74270851107159 -0.297460705041885 -0.07824576 -0.9452494 -0.3168297 172 175 163
3.48944544287951 1.66624212952175 -0.349864542484283 -0.4322703 0.9013942 0.02511645 192 191 185
3.48037195819051 1.68736911507168 -0.311624705791473 -0.2357901 0.7200266 -0.6526598 197 199 194
3.40886637064249 1.68080116005459 -0.3479223549366 0.2717162 0.9155204 0.2966357 192 190 183
3.4547082288991 1.66215015144863 -0.350843042135239 -0.2970071 0.8992469 0.3211568 195 193 188
3.4206530066076 1.74779970140972 -0.305668354034424 -0.118284 -0.7963482 -0.5931597 169 172 157
3.43069018105597 1.74345571489849 -0.300805449485779 0.04443694 -0.8786038 -0.4754794 180 182 173
3.52720715718896 1.70902980061093 -0.345238834619522 -0.9341992 0.03564023 0.3549671 179 181 177
3.43447079936595 1.66757643909969 -0.332340270280838 -0.7829184 0.1225677 0.6099311 176 177 170
3.42648702169389 1.72711009474316 -0.277699202299118 -0.204244 -0.615889 -0.7608976 187 185 175
3.40400345864327 1.66050446720638 -0.339545667171478 -0.1935941 0.5344272 0.8227448 193 191 183
3.5245607258621 1.6973432371191 -0.343404144048691 -0.721166 0.6711378 0.1717372 150 155 145
3.4781480660531 1.70449305267849 -0.294800937175751 -0.5097921 0.5316744 -0.6763389 185 185 176
3.43888893405528 1.66468537540951 -0.317751526832581 -0.5710934 0.7697241 0.2852667 200 199 193
3.3947520615402 1.66086030693569 -0.330160856246948 0.4125766 0.8799794 -0.2354078 192 192 185
3.39601226764352 1.67696125002422 -0.303459286689758 0.588398 0.7849437 -0.1940392 189 190 185
3.45848884767474 1.70689488144436 -0.264689415693283 -0.3197755 -0.2228564 -0.9209118 198 198 195
3.39208339023025 1.70891863794842 -0.343415260314941 0.9517587 0.1428105 0.2715889 177 178 165
3.50252193825872 1.674515015798 -0.349775582551956 -0.342449 0.642451 -0.6855547 187 188 184
3.44605728339956 1.67166841717281 -0.297869920730591 -0.4495179 0.7347246 -0.5080485 191 192 184
3.49438248815567 1.68579459877529 -0.319828629493713 -0.464321 0.6387735 -0.6134936 199 200 195
3.48987243192823 1.68308145494976 -0.321336448192596 -0.333779 0.7747847 -0.536936 194 197 193
3.48032748008699 1.69141656847515 -0.317840486764908 -0.323322 0.6176377 0.7169285 200 201 197
3.45920049360574 1.66557491512814 -0.358849078416824 -0.02058864 0.8871241 0.4610715 195 196 192
3.48164699094922 1.70363313646832 -0.295557051897049 -0.6364864 0.5488117 -0.5419325 191 193 187
3.48090569170744 1.68043053837338 -0.340168356895447 0.2638854 0.812068 0.5204902 174 176 168
3.39220570641191 1.7014463612608 -0.327725678682327 0.8268882 0.5549646 0.09094053 178 180 174
3.40500420945317 1.67582709284344 -0.307521611452103 0.3796316 0.9243985 -0.03697426 193 193 184
3.4484590884167 1.71919298859158 -0.271739184856415 -0.06875695 -0.5634425 -0.8232891 190 189 184
3.47285519967408 1.67684263678112 -0.315646231174469 -0.5487707 0.7564599 -0.3558358 194 194 189
3.43233586157293 1.69181687326946 -0.359160423278809 -0.05689352 0.8027505 0.5935948 190 190 184
3.39146070050628 1.7318024704031 -0.35328933596611 0.8309716 0.01206039 0.5561841 178 179 170
3.44425592998595 1.66837704868832 -0.31904137134552 -0.4494262 0.8559105 0.2557992 191 193 184
3.41080857309134 1.69146103354015 -0.276164710521698 0.7611485 0.1883623 -0.6206227 200 200 195
3.50523508580954 1.68265444727459 -0.342837035655975 -0.536949 0.8124858 0.2270519 199 199 192
3.44501205355481 1.66504121513882 -0.30761057138443 -0.2962621 0.9501353 0.09732282 187 186 180
3.50455679985316 1.68185383768597 -0.339690238237381 -0.04600982 0.9396603 -0.339001 189 189 183
3.4071169109884 1.65801370831051 -0.324690073728561 0.4612089 0.7350621 0.4969608 192 192 186
3.41056394445331 1.75286275835552 -0.321776747703552 0.3202747 -0.90838 -0.2688304 172 173 159
3.44018620493443 1.75962335558453 -0.31430447101593 -0.01915518 -0.9388258 -0.3438591 180 179 163
3.40502644943626 1.7368729779295 -0.296135276556015 0.6523381 -0.2874169 -0.7013177 187 188 179
3.45880019253672 1.67011166306057 -0.348441243171692 -0.2468135 0.7742569 -0.5827601 184 185 178
3.45297359194227 1.67544902058163 -0.359160423278809 0.5058681 -0.08192041 0.8587121 192 191 185
3.41779159622819 1.73745114298382 -0.285727441310883 0.06803822 -0.8520659 -0.5189938 173 174 164
3.40849572288425 1.74984569044628 -0.315409004688263 0.2660368 -0.946329 -0.1835369 167 169 151
3.48201763870747 1.68105322809734 -0.34130996465683 0.3187255 0.8481453 0.4231591 182 181 176
3.40738377588422 1.68483383150616 -0.280256688594818 0.8077506 0.1534018 -0.569216 187 187 179
3.49811863022477 1.72310704680004 -0.307855188846588 -0.2174899 -0.198311 -0.9557044 189 188 181
3.43482662140013 1.6591256329588 -0.344794064760208 0.2598768 0.8636486 0.4319434 191 192 186
3.50034252049954 1.753641075807 -0.34096896648407 -0.8607398 -0.4869927 0.1482064 171 174 163
3.40475958081515 1.6829806038908 -0.347522050142288 0.6365638 0.7399699 0.217327 187 186 178
3.38901441785128 1.7251308033041 -0.326246798038483 0.7833405 0.0675055 -0.6179164 188 188 180
3.44416697424457 1.67224664183178 -0.353200376033783 0.01423465 0.9440679 -0.3294437 185 185 177
3.42695403898687 1.64885128231564 -0.334208339452744 -0.4173314 0.8791822 -0.2299417 192 190 185
3.44409284422726 1.66612351627865 -0.313985735177994 -0.3184657 0.8864387 0.3358661 182 182 171
3.42175012881489 1.75568718405285 -0.320220053195953 0.3690981 -0.8796496 -0.2999719 178 177 163
3.39048218595416 1.74336678476849 -0.347551703453064 0.6854587 -0.5204938 0.509149 176 176 167
3.44007501060695 1.76315934153118 -0.333229809999466 -0.4755484 -0.8115018 -0.3395859 168 171 148
3.4149005362633 1.66824359388867 -0.304763972759247 0.7161304 0.6757361 -0.1747511 192 192 187
3.4522619462441 1.68076414557018 -0.350287079811096 -0.1881695 0.8902958 0.4146874 180 181 165
3.51188897209794 1.68754697533169 -0.336156457662582 -0.5353052 0.6917055 -0.4847596 197 197 191
3.42052698748738 1.74559063406506 -0.301661670207977 -0.1670619 -0.828668 -0.5342281 173 172 155
3.45528644098521 1.68065292330303 -0.348218858242035 -0.3667026 0.9096934 0.1949027 185 185 170
3.46097960843326 1.76880807371655 -0.354267865419388 -0.06919795 -0.952976 0.2950397 147 148 138
3.43687260391743 1.66535253019848 -0.322955429553986 -0.552058 0.7595955 0.34387 169 173 160
3.42953375595243 1.72646511288204 -0.277943819761276 -0.2522607 -0.57834 -0.7758141 183 184 174
3.39911089333327 1.74736971350231 -0.323355734348297 0.7656333 -0.459872 -0.4498037 181 181 171
3.50287775936157 1.71712476702252 -0.355735629796982 -0.456726 -0.09143934 0.8848956 101 103 65
3.41009692716033 1.67487079592266 -0.334964454174042 0.4993063 0.8004549 0.3316099 188 189 180
3.41209843250544 1.65174234600582 -0.328959941864014 -0.1389766 0.9722716 0.1880786 193 191 184
3.40778407695324 1.71249908896008 -0.281591027975082 0.6212279 -0.1746835 -0.763912 196 194 187
3.38650882857473 1.72324789257565 -0.331880658864975 0.9808295 0.1743091 -0.08711942 185 185 178
3.41536755728156 1.67153496237316 -0.285460591316223 0.7174255 0.6916127 0.08350194 188 190 186
3.40965214985044 1.66913319321194 -0.317862719297409 0.5459667 0.6798045 -0.4896796 208 208 204
3.39541923123033 1.67709470482388 -0.301917403936386 0.5913185 0.7470215 -0.3038114 189 188 183
3.51642127203376 1.69953007193127 -0.333500385284424 -0.5157431 0.6442912 -0.5647104 197 197 191
3.46282543948472 1.67729485722103 -0.295668244361877 -0.7875549 0.6063265 -0.1101161 185 187 180
3.40689451860816 1.72702110500851 -0.291198253631592 0.7751262 -0.2858174 -0.5634605 183 183 170
3.46483806389005 1.68526751490154 -0.283848255872726 -0.8717276 0.396313 -0.2881439 186 189 181
3.39395145940215 1.72312933893719 -0.35700324177742 0.907675 0.03289886 0.4183822 180 181 173
3.48806663098366 1.76436025591412 -0.344660639762878 -0.5918769 -0.7769223 -0.2146472 176 176 163
3.42023788074584 1.65369934530773 -0.31788495182991 0.498338 0.1054151 -0.8605503 186 186 175
3.48095017167361 1.68536759110012 -0.346528708934784 0.3503855 0.7757227 0.5248659 175 176 168
3.47218802998395 1.7093055913023 -0.284099549055099 -0.6658364 0.1536212 -0.7301112 194 195 188
3.48821489008696 1.71915597410717 -0.299456298351288 -0.791885 -0.3477577 -0.5019788 183 183 175
3.47450088019104 1.69508600922146 -0.357803821563721 -0.2328797 0.9537008 0.1903205 182 183 176
3.39328429343731 1.66535253019848 -0.324645578861237 0.4940503 0.7677647 -0.407985 197 194 187
3.50284810977609 1.68206138105908 -0.339960813522339 0.01538661 0.9150166 -0.4031227 184 185 179
3.40644974129827 1.67825115414181 -0.336476713418961 0.5668942 0.8167503 0.1074702 191 191 184
3.45635390988172 1.66032654734173 -0.335364758968353 -0.6315427 0.7706513 -0.08514965 184 185 174
3.4694526405874 1.6828323075346 -0.350843071937561 -0.7314681 0.663038 0.1591701 169 172 154
3.49825206267268 1.7405201861433 -0.314282238483429 -0.113102 -0.4377765 -0.8919415 192 190 181
3.420356488401 1.66312862129727 -0.283414602279663 0.845978 0.4999676 0.1853473 185 187 179
3.42228386233182 1.68154246302166 -0.345594674348831 -0.1418039 0.6024415 0.7854654 196 195 187
3.4305122686419 1.68334383459606 -0.265756905078888 0.5920494 -0.1162591 -0.7974719 195 196 189
3.46454673315019 1.68085754604855 -0.299195349216461 -0.7978876 0.5030258 -0.3321752 194 194 187
3.47567213008733 1.70922256203213 -0.287565886974335 -0.6551124 0.2836264 -0.7002741 196 196 189
3.41997101398737 1.7133441636137 -0.271917074918747 0.2662517 -0.123298 -0.9559852 195 195 190
3.47129847350151 1.66508568020382 -0.341324806213379 -0.2082888 0.8793324 -0.4282409 186 187 179
3.41631493213207 1.72157258482495 -0.275808870792389 0.5329755 -0.3541071 -0.7684694 186 186 179
3.4324470559004 1.66196108551541 -0.287139624357224 -0.6473162 0.7603757 -0.05301316 196 198 192
3.42593104819388 1.75791103334942 -0.319575101137161 0.311493 -0.9027063 -0.2968054 180 179 164
3.50024911629588 1.70915878506222 -0.31162691116333 -0.4894551 0.5946988 -0.6377829 191 192 183
3.47143190781207 1.67700577469387 -0.322599619626999 -0.05330607 0.99854 -0.008732022 194 196 191
3.39630878957541 1.68923718424359 -0.320175558328629 0.9473312 0.04588693 0.3169509 174 176 165
3.39346220585139 1.69871092529812 -0.322644084692001 0.8078395 0.5768639 0.1209268 173 175 165
3.39715386795432 1.68696881027737 -0.293555557727814 0.8059703 0.007356774 -0.5919103 190 191 183
3.49238839613826 1.67981523962536 -0.329641938209534 -0.4771238 0.8780898 0.03620918 187 188 182
3.44283263812394 1.67644972296276 -0.339478969573975 -0.21691 0.9255794 -0.3102465 186 186 175
3.40987453850538 1.65921462269344 -0.355824589729309 0.1643172 0.8175008 0.5519894 195 194 189
3.42088280859024 1.66150522919216 -0.279100239276886 0.4767664 0.7078125 -0.5212439 196 197 196
3.41011175381572 1.70109791250744 -0.273807376623154 0.744966 -0.06520965 -0.6639076 195 194 185
3.49998669939668 1.68212068768063 -0.329226821660995 -0.3094394 0.9470689 0.08548576 190 192 188
3.49714011567266 1.6829806038908 -0.335320293903351 -0.4193332 0.9047733 -0.07446397 186 188 179
3.39412937181623 1.71058649511852 -0.355335295200348 0.9704918 0.1305536 0.2027347 174 176 163
3.51016224789054 1.6895336577467 -0.331870764493942 -0.6122532 0.6034179 -0.5109137 195 197 192
3.51073012369306 1.68895412178555 -0.333666503429413 -0.5757456 0.5936165 -0.5622602 192 194 188
3.44241009800316 1.66980034800091 -0.298714995384216 -0.4362183 0.7391506 -0.5131959 175 178 168
3.4969473766032 1.74984569044628 -0.322080701589584 -0.1657298 -0.9161425 -0.3649884 185 186 179
3.48846693205268 1.67206872196713 -0.353244870901108 -0.02042063 0.24049 0.9704368 190 191 186
3.50303343179257 1.69619793386974 -0.354290068149567 -0.6202148 0.6027242 0.502053 178 181 172
3.43920027891726 1.76605040522137 -0.335305452346802 -0.2992133 -0.8362417 -0.4595338 175 176 163
3.44572369948582 1.66192776651898 -0.327625602483749 -0.7657533 0.5045145 0.3988571 182 184 177
3.48522004725964 1.68954849930325 -0.356936514377594 0.4562779 0.7093685 0.5372213 181 185 175
3.41610143947036 1.66962242813625 -0.341636151075363 -0.1868571 0.9755155 0.1159908 194 192 185
3.4844194451216 1.73745114298382 -0.310879707336426 -0.470172 -0.4001439 -0.7866531 188 187 179
3.47730298581154 1.69337362738171 -0.361962527036667 -0.06151045 0.9929 0.1018139 176 178 171
3.46698411981196 1.74425632448712 -0.304852932691574 -0.3697085 -0.7418051 -0.5595005 187 186 176
3.46894114705355 1.68661297054806 -0.359071463346481 -0.7702069 0.5460082 0.3296308 185 185 174
3.42152773829729 1.66953343840161 -0.274763643741608 0.4723443 0.2264236 -0.8518353 198 197 190
3.47809246795804 1.72076082916775 -0.291809797286987 -0.4262654 -0.5210911 -0.7394335 187 187 179
3.42239505852194 1.7606687018446 -0.346128404140472 0.1436908 -0.985891 -0.08585944 161 161 145
3.4149005362633 1.68056399317303 -0.345016449689865 -0.08935433 0.9120445 0.4002383 184 184 173
3.50833371149928 1.7132700154356 -0.314252585172653 -0.6205356 0.02971226 -0.7836152 193 194 190
3.4003562727812 1.681275613027 -0.328426212072372 0.8115342 0.5241804 0.2581611 179 178 166
3.45817750281275 1.67715401144543 -0.291509568691254 -0.03376913 0.9902666 -0.1350253 185 188 180
3.40180921795399 1.72135019989529 -0.299604564905167 0.9314539 -0.05552523 -0.3595979 182 183 173
3.4586074553299 1.68047500343838 -0.269152045249939 -0.4829746 0.572874 -0.6622317 185 187 185
3.44812550438655 1.65601218433895 -0.334475189447403 -0.3346971 0.9396124 -0.0714585 187 188 182
3.40057866516144 1.69114971848049 -0.338389247655869 0.9258528 0.295063 0.2360812 174 174 162
3.40066761764319 1.74621326418438 -0.321265280246735 0.8150206 -0.4179368 -0.4013357 183 184 175
3.47890418822498 1.74986047239819 -0.319352716207504 -0.455326 -0.7263901 -0.5148162 173 172 153
3.46564978415699 1.68625713081875 -0.282302647829056 -0.8207611 0.3027146 -0.4844741 191 194 188
3.43707275445194 1.76511640043774 -0.329960703849792 -0.03938458 -0.9062524 -0.4208984 180 180 170
3.50310014801652 1.74919337721386 -0.33558714389801 -0.8237138 -0.5627661 -0.06920912 170 172 161
3.49869683998258 1.66395146341839 -0.356847584247589 -0.1442396 0.7994459 -0.5831648 197 196 191
3.38859187679918 1.72897810431042 -0.341636121273041 0.9377314 0.2437764 0.2474526 164 164 153
3.47469149957032 1.71159685345211 -0.285568624734879 -0.6294137 0.1324518 -0.765699 192 192 185
3.42695403898687 1.68585682602444 -0.346261829137802 -0.264314 0.7863191 0.5584267 193 193 185
3.39466310905845 1.69704300852337 -0.299737989902496 0.8106654 -0.2444595 -0.532035 182 184 175
3.39879954847128 1.66308415623226 -0.327759027481079 0.1849808 0.9373251 -0.2953028 197 195 188
3.40060090141923 1.67553801031628 -0.311591327190399 0.3985658 0.9153627 -0.05706619 193 193 187
3.50596155839593 1.74244756193676 -0.316135495901108 -0.3980778 -0.5813897 -0.7095914 187 187 178
3.39372907074721 1.71516776772061 -0.319530636072159 0.932274 -0.185654 -0.3104799 179 180 167
3.42917793298692 1.66739851923504 -0.346083909273148 -0.3907287 0.8703308 -0.2997588 184 185 177
3.49621497335465 1.70113945694485 -0.313526123762131 -0.6957201 0.1841385 -0.6943101 192 194 187
3.45317374247679 1.65905893536129 -0.333852529525757 -0.6001135 0.700828 0.3856217 183 184 175
3.44816998225723 1.67851800413647 -0.272828876972198 -0.3603097 0.8187875 -0.4469497 202 203 197
3.39693147929938 1.69550854654827 -0.33592814207077 0.79064 0.5533169 0.2621618 175 176 164
3.48456399756105 1.72331834526577 -0.298147916793823 -0.6104124 -0.5189449 -0.5984086 183 184 179
3.39979585500986 1.67551130743542 -0.319334924221039 0.7865497 0.6145653 -0.06040668 189 189 179
3.47712507339747 1.68252099247494 -0.339768052101135 0.005077115 0.8306918 0.5567095 182 184 176
3.43093480783136 1.72942287416973 -0.28103506565094 -0.2421391 -0.6700076 -0.7017539 186 185 173
3.42130534964235 1.67331410141506 -0.334519684314728 -0.1706063 0.8946084 0.4130003 180 180 165
3.44470070869283 1.67060095758953 -0.354712635278702 -0.1351666 0.725474 -0.6748463 187 188 179
3.51559842991264 1.73633927794018 -0.320242285728455 -0.7552407 -0.4759847 -0.4506107 178 179 166
3.39955567436845 1.72924501390972 -0.309389680624008 0.9644776 0.1748251 -0.1980383 178 178 169
3.49030534791381 1.67944217415371 -0.335433959960938 -0.1884264 0.9700378 0.1533696 194 193 188
3.48171518983872 1.6925996610693 -0.305448949337006 -0.2474393 0.7121562 -0.6569683 196 197 190
3.52373787629039 1.73544967861691 -0.33033874630928 -0.7623261 -0.2519349 -0.596144 196 196 190
3.49852782356174 1.68319261761227 -0.331650853157043 -0.3343842 0.9300148 0.152511 188 190 183
3.39114935564429 1.70471543760815 -0.338300287723541 0.9381524 0.2945201 0.1820107 180 180 167
3.4491707342895 1.69177240820446 -0.26235431432724 -0.4647548 0.209679 -0.8602544 195 198 192
3.5268958048764 1.71267700882473 -0.344705104827881 -0.9997687 0.01803469 0.01172189 179 183 177
3.45266224684746 1.7671179244093 -0.361473262310028 0.08041606 -0.9782218 0.1913516 144 147 135
3.49469383301766 1.67820662947216 -0.345839291810989 -0.0128043 0.9721014 -0.2342114 198 197 195
3.51561325656802 1.72296620102444 -0.320242285728455 -0.7952492 0.1279506 -0.5926275 195 196 191
3.47033108080358 1.70095706673184 -0.283826023340225 -0.8238854 0.2029485 -0.5291736 192 192 186
3.49651742594869 1.7033366629652 -0.313881933689117 -0.5731677 0.4403729 -0.6910502 193 194 187
3.4924699390176 1.76035732718029 -0.349241852760315 -0.712209 -0.6715865 0.2042792 166 168 157
3.46547187360556 1.75795549841442 -0.329360246658325 -0.1821155 -0.9797638 -0.08304737 182 183 181
3.46201742495031 1.75937873812237 -0.329419553279877 -0.4376771 -0.8909968 -0.1206794 171 173 162
3.43413721452088 1.67518217058697 -0.335698336362839 -0.5067254 0.8535926 -0.1208679 171 175 159
3.42246177474589 1.75835580320873 -0.322733044624329 0.3756554 -0.8946987 -0.2416551 169 170 151
3.48590203987987 1.70364797802487 -0.302065670490265 -0.7084013 0.2187508 -0.6710556 195 196 190
3.44367771743418 1.67209095449963 -0.287373125553131 -0.6195446 0.7702549 -0.1512347 176 180 169
3.39911089333327 1.67553795071163 -0.322421699762344 0.8413674 0.5298219 0.1067225 177 177 163
3.48206211867363 1.67693162651577 -0.331465542316437 -0.1910969 0.9668677 0.1692597 187 190 185
3.42579761388333 1.66828805895367 -0.350264847278595 -0.2404867 0.8078209 -0.538137 185 186 181
3.42833285274536 1.65538949461498 -0.308811455965042 -0.8964917 0.199819 -0.3954427 181 184 173
3.46456452420534 1.67556465359249 -0.319495052099228 -0.3663543 0.8986298 0.2413481 193 195 190
3.44447831910656 1.68367744179287 -0.336877018213272 -0.5920221 0.6640016 -0.4567403 172 175 161
3.5075924122575 1.72882247658291 -0.310234755277634 -0.4696311 -0.117151 -0.8750556 192 193 188
3.44172069158957 1.76222533674755 -0.324734538793564 -0.05111482 -0.9692764 -0.2406045 172 172 154
3.44421145188243 1.66579730005779 -0.328915476799011 0.8301346 0.1846254 0.5261083 172 176 165
3.49006813260348 1.69199479313412 -0.308366686105728 -0.5291737 0.6219746 -0.5771679 190 193 188
3.50532404201657 1.69684285612621 -0.352444261312485 -0.5545161 0.5372001 0.6355532 177 179 170
3.49864742028148 1.68290156813183 -0.339787840843201 -0.05677383 0.985796 -0.1580601 182 184 174
3.43069018105597 1.75826675386944 -0.314727038145065 0.2834533 -0.906319 -0.3134327 174 171 160
3.4600900510195 1.72264004440823 -0.27745458483696 -0.3096357 -0.6928955 -0.6511695 178 178 163
3.47125399539799 1.75635427923718 -0.32224377989769 -0.02536402 -0.9029532 -0.4289897 180 181 163
3.51260358708532 1.71353692503491 -0.31788495182991 -0.49462 0.02469516 -0.8687584 196 195 192
3.42526388036639 1.73798496218243 -0.287684470415115 -0.172441 -0.7880794 -0.5909272 166 163 144
3.43832554722757 1.74514586420574 -0.303629815578461 0.08851903 -0.7889707 -0.608021 180 181 170
3.51960144060285 1.68647951574841 -0.350309312343597 -0.8060987 0.5539932 -0.2080778 190 190 184
3.42326237688393 1.65983731241741 -0.353022456169128 -0.4934148 0.8197651 -0.2907353 195 194 187
3.42588657009036 1.65392173023739 -0.302317708730698 -0.7405595 0.6528641 -0.1591856 187 188 180
3.42504149171145 1.66855496855297 -0.294400632381439 0.5904158 0.7992124 -0.1125553 186 188 182
3.52006845789582 1.73727328272381 -0.328982174396515 -0.5560919 -0.6574366 -0.5084672 177 178 163
3.49155814068944 1.7184813687376 -0.304141283035278 -0.6804018 -0.23803 -0.6931054 176 178 168
3.51994614171416 1.69399625750103 -0.339612394571304 -0.6697576 0.6605028 -0.3393535 188 189 186
3.45355180426122 1.76698452921429 -0.357025474309921 0.0298258 -0.9928457 0.1156192 162 161 139
3.45270672471815 1.67701465578594 -0.277792602777481 -0.2782041 0.9604051 -0.0149845 188 189 183
3.40818437802226 1.69943738670864 -0.276372283697128 0.8661268 0.03827611 -0.4983566 186 186 176
3.38859187679918 1.72717673273602 -0.34096896648407 0.9479099 0.1960404 0.2510677 174 176 164
3.5254280404988 1.73473799915829 -0.34301495552063 -0.8013587 -0.4006895 0.4441533 181 182 176
3.40220210569532 1.68098653049984 -0.33325207233429 0.7195916 0.6318853 0.287939 191 190 182
3.42886658812494 1.68341053219357 -0.266335099935532 0.5038098 -0.104459 -0.8574754 196 197 190
3.4124275656286 1.66890186758557 -0.315580993890762 0.5499202 0.7086228 -0.4420876 213 213 211
3.48219555112154 1.68599028082409 -0.313970893621445 -0.1673278 0.6008738 -0.7816343 204 205 200
3.45404106060595 1.6778953144125 -0.358315348625183 0.6101736 -0.4316621 0.6643462 190 189 183
3.42628687115938 1.6712681123785 -0.328915476799011 -0.3474589 0.8505683 0.3947225 174 178 165
3.45128343297255 1.68834758492031 -0.362140446901321 0.3457298 0.3335957 0.8770318 189 188 179
3.46738442088098 1.69106072874584 -0.308500111103058 0.5595698 0.8111313 -0.1701402 191 192 185
3.45634501435415 1.68921048136273 -0.267544895410538 -0.3989673 0.0114681 -0.9168934 198 198 190
3.45662077710585 1.75590950937786 -0.314771503210068 -0.2596588 -0.8698303 -0.4194908 182 180 168
3.47129847350151 1.69372940750637 -0.357158899307251 -0.6154056 0.7682365 0.1763195 184 184 175
3.48241793977649 1.68741805048504 -0.311564654111862 -0.1751843 0.7019984 -0.6902962 202 203 199
3.39235025885136 1.68672413321057 -0.311391174793243 0.9173886 0.1392983 0.3728192 179 180 171
3.42384058850438 1.67366988153973 -0.336031913757324 -0.02462542 0.9519653 0.305214 186 187 175
3.43669469243468 1.70213574858227 -0.265979290008545 0.1377602 -0.2341768 -0.9623842 184 183 172
3.43776216133119 1.65823609324017 -0.328826516866684 0.3703119 0.8745888 0.3129912 182 183 178
3.43273616264195 1.75995702238598 -0.321443170309067 0.09987038 -0.9457661 -0.3091156 171 173 159
3.47096806632907 1.69911123009243 -0.2852763235569 -0.7977292 0.3520724 -0.4895642 192 193 188
3.52040945606858 1.70292896719494 -0.333518922328949 -0.2376904 0.6365396 -0.7337033 193 194 188
3.50100969018967 1.69404078217068 -0.353689640760422 -0.6060761 0.5411995 0.5829021 180 182 172
3.47048304657073 1.6897708842329 -0.359308660030365 -0.8987567 0.4381428 -0.01635059 179 179 167
3.46849636788101 1.66704267950573 -0.332073390483856 -0.4345378 0.256779 -0.8632736 176 179 166
3.47058682757051 1.68861449451962 -0.357292354106903 -0.9310598 0.3571169 0.07480146 176 178 165
3.41018588336737 1.67171288223782 -0.302762478590012 0.5615731 0.7985436 -0.2167113 193 196 192
3.466205757657 1.68661297054806 -0.360049962997437 -0.4194047 0.722805 0.5492291 189 188 180
3.44496757591696 1.66855496855297 -0.318463176488876 -0.3663108 0.8648711 0.3432409 188 190 182
3.45057178715796 1.67156464548626 -0.300242066383362 -0.3341619 0.5790632 -0.7436543 181 184 171
3.4523331106975 1.68403322191754 -0.267927408218384 -0.2134019 0.6041556 -0.7677602 187 188 180
3.39853267985017 1.70517802925625 -0.29915976524353 0.824993 -0.3025605 -0.4773297 181 181 167
3.4319503871593 1.66133470030346 -0.289404302835464 -0.6208531 0.7831531 -0.03482522 194 196 193
3.43789559471042 1.72357404919186 -0.276698440313339 0.1039816 -0.7295299 -0.6759985 187 187 175
3.41036379578144 1.65925908775845 -0.295379161834717 0.7655343 0.2797348 -0.5794011 188 189 180
3.42186577113898 1.67745054455319 -0.273335933685303 0.6008717 0.5080342 -0.617134 195 195 188
3.43469318802089 1.67077881784954 -0.351777076721191 -0.5027335 0.6833641 -0.5294077 185 186 179
3.39205374064476 1.72348511906185 -0.353259682655334 0.9337475 0.06761865 0.3514872 178 179 167
3.42593104819388 1.76106888742962 -0.332162350416183 0.4432224 -0.8956565 -0.03678801 163 164 147
3.52568600940139 1.73174018354931 -0.334083795547485 -0.8612917 0.1664192 -0.4800846 187 189 182
3.45893362591595 1.76456040831127 -0.337833285331726 -0.3617447 -0.8628634 -0.3529978 155 156 136
3.51288527863652 1.70089036913433 -0.327091872692108 -0.7991431 0.2690362 -0.5375777 195 195 187
3.41730234267742 1.67420364113369 -0.333363264799118 0.218741 0.7576789 0.6148781 203 200 193
3.43963023143441 1.760268277841 -0.319797515869141 0.1613773 -0.9752098 -0.1514046 170 171 147
3.39150518047244 1.70120174379864 -0.308188796043396 0.944062 -0.2683725 -0.191633 192 191 185
3.45273637663194 1.71794021816769 -0.271094232797623 0.08774023 -0.6427706 -0.7610175 192 191 184
3.45012700845108 1.68243206234493 -0.33994597196579 -0.2460291 0.6756032 -0.6950036 170 174 156
3.42619791495235 1.68461150618115 -0.349842309951782 -0.5063006 0.8174513 0.2746509 194 193 186
3.44252129279629 1.76622838469067 -0.342525690793991 0.4501855 -0.8882374 0.09147286 149 148 127
3.47329997698397 1.68892580957928 -0.319352716207504 -0.3844558 0.6762608 0.6283829 193 193 186
3.43131287077994 1.71890390606442 -0.274919331073761 0.02464615 -0.4377358 -0.8987658 189 190 180
3.48897842558653 1.68805850239315 -0.325957685709 -0.5789916 -0.4698062 -0.6663714 200 202 199
3.42281759771139 1.67713916988888 -0.359204888343811 0.7462112 -0.3064862 -0.5909611 185 185 178
3.46425985133828 1.69711530895748 -0.275864481925964 -0.7723907 0.4367267 -0.461175 193 194 186
3.49504965412051 1.69533062668362 -0.315460920333862 -0.6740124 0.3582922 -0.646014 188 190 181
3.46208043544174 1.68288797827282 -0.353433877229691 0.001887042 0.9966107 0.08224063 176 177 163
3.41232971715362 1.69540179462948 -0.273576110601425 0.6898813 0.2242842 -0.6883025 198 199 196
3.39381802695424 1.72957862110653 -0.319649249315262 0.7476329 0.08581232 -0.6585448 187 186 177
3.42395178283186 1.66797674389401 -0.323911726474762 -0.1191924 0.8684156 0.4812978 174 176 163
3.44941536255282 1.66842151375332 -0.29093137383461 0.1171325 0.9778473 0.1734778 191 192 186
3.50813250111968 1.69735116453686 -0.324035614728928 -0.6435415 0.4436008 -0.6237569 203 203 197
3.39236508550675 1.70956356020489 -0.345565021038055 0.949764 0.1620055 0.2677734 177 177 166
3.40578257533343 1.66521913500347 -0.343459725379944 0.06558954 0.6364503 0.7685239 195 193 186
3.45755481215746 1.66286177130261 -0.323667079210281 -0.5237119 0.6392863 -0.5630621 179 181 173
3.39170532914431 1.70113498659649 -0.324200809001923 0.8397247 0.5403442 0.05376448 179 180 175
3.51517588513524 1.70391482801953 -0.328782021999359 -0.7885793 0.4837551 -0.3796363 185 188 176
3.40533779429824 1.67918515892544 -0.336877018213272 0.6525909 0.7502551 0.1060301 191 190 183
3.41857737357349 1.66658306808987 -0.322214126586914 0.02932888 0.9751198 0.21973 184 184 174
3.46013452912302 1.68029708357372 -0.342748075723648 0.1494742 0.9866771 0.0642316 170 171 155
3.42172789069445 1.67229110689678 -0.274830400943756 0.5426252 0.1188843 -0.8315193 196 196 188
3.44776968142104 1.76863021345654 -0.34007939696312 0.03831919 -0.9821547 -0.18413 153 156 140
3.42619791495235 1.6712236473135 -0.328025907278061 -0.3868982 0.8443051 0.3707542 181 183 171
3.49448812248738 1.70765656919995 -0.30622062087059 -0.4381285 0.5675994 -0.6970469 196 197 189
3.46333693488122 1.67246902676144 -0.342792570590973 -0.8477395 0.5116376 -0.1398738 177 179 164
3.40800646560819 1.65934801788845 -0.300494104623795 0.9078496 0.1761851 -0.3804839 192 191 185
3.49644823613198 1.68939036818066 -0.317998617887497 -0.5560148 0.5249005 -0.6444587 195 197 191
