ply
format ascii 1.0
comment File exported by Rhinoceros Version 7.0
element vertex 498
property float x
property float y
property float z
property float nx
property float ny
property float nz
property uchar red
property uchar green
property uchar blue
end_header
3.68782786148221 1.82966489286938 -0.33340772986412 0.6123154 -0.6708531 0.418361 201 201 198
3.6588616432491 1.87487668486157 -0.325479567050934 -0.510351 0.6546524 0.5576487 191 192 184
3.70707563179166 1.8835832545332 -0.359227120876312 0.9450264 0.2576455 -0.2013551 185 187 179
3.70068565624387 1.8650878140501 -0.367566734552383 0.8545257 -0.3065926 -0.4192693 175 177 172
3.70912162082822 1.87544376345196 -0.329426944255829 0.8751031 0.05078027 0.481265 192 193 186
3.62661518769891 1.82765228243389 -0.353645175695419 -0.6655269 0.007979847 0.7463312 185 187 184
3.6360000135246 1.82035786600628 -0.337188363075256 -0.3186231 -0.6564316 0.6837959 192 192 177
3.69795768576295 1.88934308977642 -0.345434546470642 -0.06400342 0.9958299 0.06500963 174 177 166
3.69382124262483 1.84059531183758 -0.335898488759995 0.8936553 -0.2758232 0.3539799 188 190 187
3.67887668924958 1.81720001192608 -0.338811814785004 0.08607286 -0.03326386 0.9957334 226 192 214
3.69602290409238 1.8821377226881 -0.367455542087555 0.1180955 0.7917591 -0.5993087 175 178 174
3.64783113318116 1.84516543837109 -0.329315781593323 -0.7886701 -0.2965468 0.5385717 193 194 189
3.6928575547281 1.83488733263531 -0.341636151075363 0.7949337 -0.6066145 0.009958893 189 190 184
3.65310176330239 1.84933526011028 -0.31643944978714 -0.8743589 0.1753216 0.4525029 196 196 188
3.65390977876813 1.83954269381085 -0.311420828104019 -0.7528397 -0.1684096 0.6362944 195 196 192
3.66580019014508 1.81217402906933 -0.358582198619843 0.1707014 -0.7080587 0.6852108 195 194 187
3.67645264285238 1.88743061514416 -0.34868586063385 -0.1992932 0.9762256 0.08524051 190 190 188
3.63286433237226 1.84969109983959 -0.353756368160248 -0.8563308 0.2201323 0.4671609 179 180 172
3.67641556876332 1.82476121874371 -0.337751746177673 0.1835877 -0.8596281 0.4767967 238 191 225
3.66168597953946 1.81068391294995 -0.359716415405273 0.02805632 -0.8748594 0.4835638 202 201 193
3.6649106355253 1.81359726877728 -0.356714129447937 0.2979966 -0.6833085 0.666549 197 196 185
3.68550389128358 1.88805324526348 -0.349375277757645 0.0568856 0.9972842 0.04677966 190 191 186
3.68532597141893 1.87568838091412 -0.325401723384857 0.09179668 0.6500596 0.7543181 192 193 186
3.70454040783078 1.8482900330595 -0.356803089380264 0.6047966 -0.212772 0.7674302 186 185 184
3.66832060235173 1.83989853354015 -0.307981222867966 0.1133669 -0.7647628 0.6342601 201 200 194
3.63657823818357 1.81510955782452 -0.33967912197113 -0.3072709 -0.6660646 0.6796635 169 174 163
3.70209414380223 1.8651916453413 -0.363964021205902 0.893698 -0.2418331 -0.377916 182 185 179
3.64102601128251 1.8008320996336 -0.36174014210701 0.497656 0.2296987 0.8364072 186 186 181
3.63777913766534 1.80505747290173 -0.349019467830658 -0.5915981 0.05603057 0.8042837 201 199 189
3.64938785749109 1.81408650370159 -0.346528708934784 0.4702651 -0.779382 0.4140223 189 191 190
3.71201268451841 1.87488777132549 -0.337010443210602 0.859233 -0.5115824 0.001472419 189 190 191
3.65525892990262 1.82591766806164 -0.330783545970917 0.243185 -0.9522882 0.1844133 202 202 199
3.63742331283719 1.88369435759106 -0.363385826349258 -0.6335244 0.7711439 0.06311792 184 185 179
3.67449561374814 1.88300497026959 -0.328070402145386 -0.1081462 0.4754344 0.8730788 188 186 176
3.69439945238263 1.88969892950573 -0.343259572982788 0.1600059 0.9847109 -0.06886631 184 184 178
3.65033671873243 1.87300486059704 -0.3411765396595 -0.7313532 0.6434076 0.2261619 174 175 167
3.65645984428556 1.82640690298596 -0.324667811393738 0.3406191 -0.7974426 0.4980602 196 196 185
3.64387259500653 1.80621392221966 -0.364853590726852 0.1740478 -0.9753878 -0.135374 195 196 189
3.65383564549119 1.8279636570982 -0.322199314832687 0.1958713 -0.7615206 0.6178355 203 202 194
3.64785336571367 1.83770436735668 -0.319486141204834 -0.8067433 0.2529811 0.5340092 187 188 180
3.66717900949151 1.8176892468504 -0.336476713418961 0.6053735 0.03589208 0.7951319 206 197 196
3.69190869348676 1.83334547968426 -0.336254328489304 0.8592259 -0.4374256 0.2653105 196 198 197
3.63104072826535 1.85120338888683 -0.35751473903656 -0.8807249 0.0348585 0.4723437 182 183 175
3.68092266338498 1.84168500395336 -0.317173302173615 0.3904071 -0.7236789 0.5690968 194 192 184
3.68250904100568 1.88768262358227 -0.33374872803688 -0.2048044 0.9527325 0.2244013 191 192 187
3.62995103614957 1.80843789072552 -0.356803089380264 -0.1817792 -0.920928 0.3447433 195 196 187
3.63497703390748 1.86745995970287 -0.350576192140579 -0.766118 0.1657088 0.62097 170 171 167
3.67313904183538 1.83058781118908 -0.326558142900467 -0.114112 -0.920182 0.3744911 201 200 194
3.70814312117727 1.86995071859875 -0.330116361379623 0.9373489 -0.2959009 0.1839015 195 196 196
3.65396907048852 1.87124056311169 -0.32932847738266 -0.8474034 0.4443887 0.2905618 184 185 177
3.63631135838659 1.88204867334881 -0.366632699966431 -0.6956928 0.7183039 -0.0071527 183 184 178
3.67816503959329 1.81720001192608 -0.356046974658966 0.3453702 -0.8469368 0.4042494 212 211 206
3.65651913600595 1.81866771669903 -0.343607991933823 0.07915405 -0.9191521 0.3858678 199 199 190
3.69252026694448 1.87392038794079 -0.323088884353638 -0.02628404 0.6144775 0.7884964 195 194 186
3.68440676348836 1.87313825579205 -0.321517318487167 0.02302299 0.8163202 0.5771406 190 192 187
3.65436937528283 1.81526512594738 -0.349519848823547 0.2245007 -0.8176789 0.5300949 199 199 189
3.64402828233869 1.82762999029675 -0.323689341545105 -0.4145217 -0.6098025 0.6755092 203 202 198
3.638001522595 1.85389418097057 -0.342792570590973 -0.9621348 0.1968535 0.1885344 181 183 176
3.66688247638375 1.83106226416149 -0.32565376162529 0.1989039 -0.9047045 0.3767585 219 189 205
3.64464355128438 1.85528785677471 -0.331628620624542 -0.7098733 0.2867139 0.6433312 186 185 178
3.6569935740772 1.80834884138622 -0.344705104827881 0.3379136 -0.7999448 0.4958857 200 199 187
3.63448776918084 1.80963880510845 -0.355691134929657 0.1360313 -0.8566076 0.4977136 191 190 176
3.69755738096864 1.84655541868725 -0.344349294900894 0.9730281 -0.1901248 0.1306479 179 180 175
3.65343534069688 1.82373828383007 -0.335631638765335 0.3809198 -0.7071329 0.595704 206 202 200
3.63832176345021 1.82513482065716 -0.331183850765228 -0.2136413 -0.7387085 0.6392708 179 183 185
3.67153783755929 1.81497604342022 -0.357203394174576 0.07597173 -0.7858247 0.6137653 190 190 181
3.68599314110906 1.87638527842083 -0.326424688100815 0.08670466 0.5090074 0.8563842 192 193 187
3.64817584174306 1.86475796194592 -0.33762201666832 -0.6880621 0.4515383 0.5680526 183 184 176
3.69050023573072 1.85003942938366 -0.311554282903671 0.56192 -0.3558619 0.7467316 197 196 190
3.70307264345319 1.86839396448651 -0.348708122968674 0.8647701 -0.5014498 0.02685072 184 187 183
3.63435432928235 1.851536936479 -0.353066951036453 -0.8446235 0.2299261 0.4834719 190 190 186
3.62296800928743 1.8211140105299 -0.357937276363373 -0.6779259 -0.3974738 0.6184101 191 192 190
3.65476968007714 1.81075067015209 -0.340123891830444 0.1564505 -0.6006548 0.7840517 194 192 182
3.6477644206825 1.81301898451367 -0.347573935985565 0.1982744 -0.961926 0.1881109 193 195 192
3.68775001781614 1.88551802130261 -0.328248292207718 0.1919697 0.3807185 0.9045447 192 192 186
3.66442138569982 1.81688875647106 -0.352199614048004 0.3919203 -0.7879083 0.4749727 206 206 198
3.67305008190305 1.82671827765026 -0.334742069244385 -0.04112601 -0.8316109 0.553834 229 184 216
3.68012206869752 1.88836461992779 -0.350865304470062 -0.1345654 0.9896581 0.04968919 228 177 217
3.64878295975358 1.86886543722668 -0.339447826147079 -0.7953813 0.3990159 0.4562399 182 183 171
3.65067771690519 1.8168997237257 -0.343693226575851 0.4454811 -0.8005555 0.4008209 185 186 175
3.67060380297334 1.84017271490612 -0.308055341243744 0.1608424 -0.7801057 0.6046196 199 198 194
3.64247896390588 1.8075037667326 -0.36024272441864 0.02433089 -0.8819821 0.4706544 191 193 184
3.64640784876973 1.83683700056591 -0.329716086387634 -0.7244259 0.5774404 0.3765232 191 195 190
3.70809865611226 1.8751991459898 -0.326691567897797 0.7198834 0.2356097 0.6528828 184 185 173
3.64820919054181 1.85400540323773 -0.324956953525543 -0.8676257 0.1864528 0.4609349 191 191 185
3.71299121397168 1.88324970694103 -0.335854023694992 0.5835894 0.6712466 0.4570026 178 181 176
3.67044813054235 1.88764185400524 -0.337099373340607 -0.2534631 0.966176 0.04754392 190 193 190
3.64293856042058 1.80590266676464 -0.364141941070557 0.08150319 -0.9943632 -0.06781644 200 200 194
3.65605953949125 1.85033602209606 -0.313170313835144 -0.694881 0.2778658 0.6632729 195 196 191
3.69459960477979 1.88981015177288 -0.335564911365509 0.2933232 0.8960694 0.3331982 182 184 179
3.68243490772874 1.84998018236675 -0.308589071035385 0.1926477 0.1004461 0.9761134 196 194 188
3.70640847700269 1.88969892950573 -0.353689640760422 -0.01827665 0.9646587 -0.2628677 159 162 154
3.64983264225156 1.80305606813946 -0.367655694484711 -0.05949237 0.0437925 0.9972677 195 193 190
3.63633916395337 1.87334222288647 -0.352099537849426 -0.5381918 0.4476379 0.7141218 188 189 185
3.70580801981122 1.87877959700146 -0.328025907278061 0.5340331 0.5319847 0.6571156 189 188 185
3.63245958703191 1.87355346174755 -0.35533532500267 -0.8254499 0.3680136 0.4280168 180 182 178
3.69042821841867 1.83498484583416 -0.35956072807312 0.919871 -0.3644105 0.1450598 192 187 188
3.70947746055753 1.87330884428539 -0.327514410018921 0.8798548 -0.009209859 0.4751534 201 201 197
3.65641536431939 1.88171512575665 -0.341135770082474 -0.6576794 0.7127907 0.2436948 184 186 181
3.64051452892453 1.85740799398937 -0.339923739433289 -0.8533769 0.2703601 0.4457053 170 172 164
3.65439606326253 1.85495287867108 -0.316995412111282 -0.8012196 0.2471491 0.5449445 188 189 182
3.69359885769517 1.83605856390515 -0.345639139413834 0.7369547 -0.6514121 -0.1804443 193 193 188
3.67371725159318 1.88796431513348 -0.338478207588196 0.03276272 0.9928058 -0.1151656 197 176 188
3.64673030989797 1.87331993074932 -0.349731117486954 -0.1343337 0.427627 0.8939181 196 197 191
3.67825399952562 1.81377512903729 -0.3659388422966 0.5003254 -0.8623947 0.0771357 185 187 181
3.69800216572911 1.85669631453076 -0.360895067453384 0.8102381 -0.5275868 -0.2552772 181 182 174
3.70035949962766 1.85963184328594 -0.338344782590866 0.9339579 -0.315062 -0.1686965 184 185 182
3.64925441759259 1.87092930765667 -0.340479701757431 -0.7915057 0.5275649 0.3085352 183 184 179
3.65548132973344 1.81679970713177 -0.34804093837738 0.204869 -0.8522545 0.4813428 192 191 177
3.68717180805833 1.83356780500927 -0.326024413108826 0.4860424 -0.7354192 0.4721456 195 194 187
3.64582962411077 1.87760097475567 -0.348974972963333 -0.08368111 -0.05835977 0.9947822 193 193 187
3.68059649186761 1.84680742712536 -0.307640224695206 0.348143 -0.1078985 0.9312112 200 199 191
3.7049407126251 1.85353846045056 -0.366054475307465 0.449618 0.8009198 -0.3954378 187 188 189
3.63032167273195 1.83752638788738 -0.352043956518173 -0.6555219 0.1696117 0.7358824 186 188 179
3.66277570145757 1.85789722891369 -0.31285896897316 -0.0711209 0.557921 0.8268409 198 199 191
3.63463603573472 1.84268576593914 -0.3479223549366 -0.8477719 0.07470632 0.5250731 185 188 184
3.67296112197072 1.83525795431652 -0.320776015520096 0.1729496 -0.7406138 0.6492917 202 202 195
3.6988917203489 1.86101073713818 -0.318641066551208 0.6115801 -0.3511411 0.7089921 199 200 192
3.64729740338952 1.83846039267101 -0.320286750793457 -0.8687447 0.2908049 0.4008929 190 190 184
3.64671917873056 1.80554682703533 -0.349642157554626 0.3054745 -0.3645582 0.8796492 199 198 186
3.68714956062467 1.82867521734753 -0.335142374038696 0.5408543 -0.7576429 0.3653135 195 194 191
3.67789817469747 1.85215956659832 -0.308144301176071 0.287118 0.03232799 0.9573495 201 199 194
3.62719339745671 1.81591016741314 -0.362807601690292 0.7697291 0.3732758 0.5178631 185 184 176
3.69593077021272 1.83910221548596 -0.345772564411163 0.83513 -0.5327314 -0.1369494 194 194 192
3.64067020135553 1.86950594873943 -0.346350789070129 -0.3584437 0.5715963 0.7381029 181 183 173
3.65858366208703 1.86521381826916 -0.317718148231506 -0.3250808 0.3397862 0.8825349 187 187 179
3.65637088435323 1.82567305059948 -0.329315781593323 0.2014749 -0.9459885 0.2539952 195 194 188
3.66456963735254 1.83685917349377 -0.313244432210922 0.1268039 -0.8741598 0.4687915 193 192 180
3.64458424466283 1.8413069912962 -0.333140850067139 -0.532505 -0.07542874 0.8430592 193 194 187
3.68870628493459 1.84428698511639 -0.316995412111282 0.4292582 -0.7298174 0.5320752 188 188 180
3.6923757256809 1.89063293428936 -0.343437492847443 0.04117348 0.9807913 -0.1906652 177 180 173
3.6819011779371 1.83539146872082 -0.321621090173721 0.198735 -0.6329485 0.7482517 194 195 182
3.65206765251786 1.88144821615734 -0.348163276910782 -0.5659448 0.4536324 0.6884215 197 198 192
3.68634896593721 1.86909086199322 -0.317736685276031 0.08299492 0.5934976 0.8005451 193 193 187
3.6378236176315 1.85892028303661 -0.346439749002457 -0.9244119 -0.03795687 0.3795023 181 182 174
3.67411755638749 1.83528024645367 -0.320086598396301 0.1998318 -0.6882977 0.6973619 200 200 192
3.64729740338952 1.85251540632763 -0.325535148382187 -0.8629092 0.1281643 0.488837 189 189 182
3.68478729444177 1.88856226892986 -0.35171777009964 0.01931886 0.9945837 0.1021274 183 184 180
3.65196757631929 1.82422751875439 -0.328070372343063 0.2533928 -0.9236423 0.2875363 197 196 188
3.68697165566117 1.88369435759106 -0.367299854755402 0.2095324 0.8461582 -0.4900127 175 177 174
3.6968457462135 1.85642952414074 -0.367255389690399 0.8238059 -0.5166818 -0.2332032 185 185 182
3.68866181986959 1.81966847868481 -0.358181893825531 0.698345 -0.6382725 0.3239175 191 191 188
3.70996672528417 1.87270838709393 -0.339634627103806 0.7773312 -0.6247013 -0.07419244 188 188 189
3.70287249105603 1.85860890837231 -0.354112178087234 0.8567986 -0.4917589 -0.155143 185 188 185
3.6360000135246 1.84659988375225 -0.343237340450287 -0.9425074 0.08242386 0.3238613 179 182 174
3.65395424383313 1.84576959105053 -0.315216273069382 -0.8197501 0.2314683 0.5238627 199 200 194
3.69520006197126 1.84108466597119 -0.338367015123367 0.9156251 -0.2267247 0.332004 192 194 192
3.67554084079892 1.88591832609692 -0.361918032169342 0.1632107 0.9838932 -0.0729141 188 180 183
3.69044092910917 1.86692625971356 -0.317128837108612 0.1527624 0.3996362 0.9038554 196 194 187
3.70199034231336 1.88692647905865 -0.335676103830338 0.3267412 0.7974924 0.5071943 180 182 175
3.69201988595159 1.83702225180187 -0.333859920501709 0.8596545 -0.3688449 0.3534793 193 194 193
3.62671897428663 1.85174447985211 -0.365802437067032 -0.7920235 -0.1712616 0.5859763 184 185 172
3.62263441699178 1.83098811598339 -0.356647431850433 -0.6764755 0.5193053 0.5222096 181 182 179
3.69199765341909 1.83405703993359 -0.337822169065475 0.8726373 -0.4370875 0.21785 197 197 196
3.67514053600461 1.85896474810162 -0.310056865215302 -0.04592491 0.7219396 0.6904303 194 196 190
3.69680126624734 1.8513589570097 -0.330650091171265 0.8930082 -0.4439729 -0.07365102 198 199 194
3.68563731628091 1.8885424801878 -0.351287841796875 0.09333608 0.9782043 0.1854851 182 185 178
3.64425066726835 1.85335499735394 -0.331978857517242 -0.7789689 0.1303203 0.6133711 191 190 185
3.6437391700092 1.88582939596691 -0.361384302377701 -0.09177906 0.9887464 -0.1181402 171 172 167
3.63239731507928 1.80843789072552 -0.358760118484497 -0.08745107 -0.9853072 0.1467037 205 205 194
3.62682276087434 1.85373110266247 -0.363178253173828 -0.8188609 -0.2295182 0.5261067 187 187 181
3.70856565850408 1.87733406515637 -0.35239976644516 0.8562279 -0.3601487 -0.3703603 180 182 177
3.66066298502118 1.87459868879833 -0.323733806610107 -0.3607605 0.6818885 0.6363018 196 197 192
3.62705997245939 1.81542081327953 -0.351999461650848 -0.9001404 -0.2447107 0.3603664 199 200 197
3.70035949962766 1.86754888983288 -0.318596601486206 0.2403185 0.276522 0.9304744 184 186 183
3.66557780521543 1.8345908591322 -0.316550612449646 0.1797975 -0.8291621 0.5293043 189 188 178
3.67892115431459 1.8613664576582 -0.313793003559113 0.0734228 0.5451474 0.8351188 200 198 192
3.69048540907533 1.89049953909435 -0.342303305864334 -0.05512805 0.9797979 -0.1922421 179 181 175
3.6549920650068 1.87077362032452 -0.326335728168488 -0.7530277 0.5057185 0.4209491 192 192 186
3.69475529211194 1.88800878019848 -0.35700324177742 0.1119048 0.9606038 -0.2543964 182 184 181
3.63684510307939 1.85376078577557 -0.348530203104019 -0.888088 0.1470785 0.4355083 181 181 174
3.64480662959249 1.86403519602337 -0.339145362377167 -0.5094548 0.6037139 0.6131765 184 182 176
3.69382124262483 1.85642952414074 -0.316061347723007 0.8049504 0.1245796 0.5801162 199 200 198
3.65577042716176 1.82740766497173 -0.323444694280624 0.3308719 -0.7452171 0.5789431 200 198 189
3.68990719931752 1.82380504103222 -0.359204888343811 0.9274949 -0.1848853 0.3249162 193 192 189
3.67254600542218 1.88717848749676 -0.353407949209213 0.2141389 0.9559154 0.2009235 228 170 216
3.66642287986905 1.87128502817669 -0.319664061069489 -0.09488694 0.6326867 0.7685727 197 198 193
3.6300844611469 1.84949094744244 -0.361317574977875 -0.9016433 -0.03406466 0.4311368 186 187 178
3.66655630486638 1.81308574171581 -0.33967912197113 0.1127059 -0.7878364 0.6054843 203 203 193
3.69482941048772 1.84697050543347 -0.362333178520203 0.9389508 -0.2496095 -0.2367836 185 186 183
3.6883504750076 1.8328784176878 -0.354868292808533 0.9668687 -0.2495349 0.05382651 194 193 192
3.64254938679368 1.88554019423046 -0.36137318611145 -0.2593274 0.9646123 -0.0476699 171 172 166
3.6706482829395 1.87411684484997 -0.322184473276138 -0.06657521 0.6278263 0.775501 194 194 185
3.65041085200937 1.84308607073345 -0.316772997379303 -0.809041 0.2984632 0.5063322 192 191 185
3.70382875817449 1.87422055693188 -0.360628187656403 0.9229138 -0.3281423 -0.2013772 176 178 177
3.6624495299402 1.86725241632977 -0.317751526832581 -0.1617716 0.3016542 0.9395928 189 189 181
3.68639344590337 1.87258381338635 -0.321629971265793 0.04265628 0.7999098 0.5986022 197 198 192
3.67426580804021 1.8752288291029 -0.322051048278809 0.03475415 0.5785308 0.8149198 191 190 181
3.70058188455732 1.85725790949383 -0.330110818147659 0.8221217 -0.5692956 0.004291445 194 195 192
3.66204922514589 1.86192984076061 -0.317010223865509 -0.002668898 0.5026319 0.8644964 194 195 188
3.63368717449338 1.87622208090344 -0.356892049312592 -0.7761943 0.5209438 0.355162 185 187 180
3.69493318217427 1.84702236147442 -0.363497018814087 0.9473034 -0.2294448 -0.2235426 190 190 186
3.69982576983602 1.88602942915478 -0.359849810600281 0.01864227 0.8858606 -0.4635768 183 185 180
3.64756426828534 1.88111466856518 -0.349241852760315 0.02045185 0.5539829 0.8322768 200 201 196
3.69717932360799 1.84111804457226 -0.351399034261703 0.8312551 -0.5453433 -0.107776 184 184 181
3.69401398914487 1.83552486391583 -0.341769576072693 0.8024499 -0.5949905 0.04539183 187 189 184
3.65381339805753 1.81108421774426 -0.357581436634064 0.1987677 -0.946188 0.2553814 199 198 187
3.64638560133607 1.81482047529736 -0.343281805515289 0.3144741 -0.7837639 0.5355558 187 189 186
3.66820198910863 1.8176892468504 -0.336832523345947 0.5635465 0.1904234 0.8038372 217 195 207
3.63030684607656 1.82840842695751 -0.344482719898224 -0.7603061 0.5582587 0.332087 194 193 187
3.67256083207757 1.81599909754315 -0.337988942861557 0.1895111 0.1396061 0.9719031 213 196 203
3.63230835514695 1.86399073095837 -0.354846060276031 -0.8545126 -0.003330947 0.5194201 178 181 171
3.63955824690492 1.80625838728466 -0.350531697273254 -0.2192162 0.3552892 0.908688 200 199 190
3.65827453749807 1.8691412875227 -0.320037692785263 -0.4945119 0.5515807 0.6717267 191 192 185
3.69011475759179 1.82941657991924 -0.343459725379944 0.8465514 -0.5321952 0.01091787 183 183 180
3.68132296817929 1.82654029818096 -0.340479701757431 0.2159648 -0.936281 0.2770144 199 197 198
3.68632671850354 1.88929862471142 -0.332985192537308 -0.3021339 0.8751967 0.3778172 183 187 185
3.70765385645063 1.87012869806805 -0.338166862726212 0.7008483 -0.7120675 -0.04208904 190 194 195
3.69253138321073 1.8887204596571 -0.332051157951355 0.373893 0.7090079 0.597923 182 183 177
3.62376860397489 1.83956343622723 -0.361837983131409 -0.8459789 0.4423432 0.2977451 194 195 188
3.69991472976835 1.8547392556242 -0.331584125757217 0.8285751 -0.5593362 -0.02462246 186 188 183
3.66640508788259 1.87355346174755 -0.322030276060104 -0.09686094 0.6447328 0.7582464 186 186 176
3.65156727152497 1.87017316313305 -0.334786534309387 -0.824951 0.3742499 0.423548 170 171 159
3.6695363284889 1.83281166048565 -0.321309745311737 0.1507979 -0.8327603 0.5327008 199 199 190
3.65454729514749 1.80977220030346 -0.341413736343384 0.05728152 -0.6926585 0.7189875 196 196 185
3.64241965728433 1.8717594811491 -0.347877860069275 -0.1178134 0.6539102 0.7473429 190 192 186
3.70551893728406 1.88129264803448 -0.367833614349365 0.6002452 0.17443 -0.7805638 166 170 167
3.64255309718282 1.83310825319805 -0.323993235826492 -0.7946301 0.3617059 0.4875776 189 189 183
3.66422863917978 1.88568109961071 -0.347536861896515 -0.2880798 0.9098099 0.2987572 222 182 210
3.6518341364208 1.83903867693463 -0.314638078212738 -0.7487222 0.1029921 0.6548341 195 196 192
3.69687241929204 1.86082381697216 -0.317422389984131 0.52924 -0.1155177 0.8405716 209 209 207
3.66022933142812 1.88369435759106 -0.339167594909668 -0.4184786 0.8890253 0.1857681 194 196 193
3.6275047423187 1.82756335230389 -0.351065456867218 -0.8276373 0.03899461 0.5599071 191 193 187
3.70267233865888 1.86344212980786 -0.319619596004486 0.5834385 -0.3146149 0.7487436 203 202 198
3.62875012176664 1.82671827765026 -0.345772564411163 -0.875339 0.3910645 0.2843416 185 187 178
3.68768330531747 1.81195158453503 -0.355023980140686 0.9811424 -0.05785619 0.1844241 195 193 190
3.70053741949231 1.88920969458141 -0.349953502416611 -0.06007673 0.9885352 -0.1385238 149 152 138
3.67921026664407 1.87911314459362 -0.326802760362625 0.09637494 0.4274645 0.8988804 192 191 181
3.66470307725103 1.88949126692333 -0.361384302377701 -0.1239591 0.9889258 -0.0816081 175 170 170
3.69346541779668 1.84250790567913 -0.364230901002884 0.9396427 -0.3300958 -0.09004612 189 186 185
3.62728235738904 1.81639940233746 -0.352577686309814 -0.9361712 -0.1609021 0.3125604 197 199 195
3.63115193563134 1.80781514139691 -0.362051486968994 0.1710788 -0.884508 0.434025 184 185 182
3.7042290629688 1.86688179464855 -0.35546875 0.9985752 -0.02037243 0.0493206 187 189 185
3.65810551362664 1.88574034662762 -0.353333801031113 -0.142384 0.9085339 0.3928015 179 181 175
3.70333952325017 1.87364239187756 -0.361651182174683 0.9389606 -0.2836595 -0.1946543 179 181 182
3.6929761679712 1.85938734503307 -0.314638078212738 0.4677781 0.3601945 0.8071205 195 197 190
3.6484983028713 1.81226295919933 -0.354490250349045 0.01001022 -0.930465 0.3662439 188 189 178
3.66339839118154 1.8143534133009 -0.355557709932327 0.4368157 -0.7273445 0.5293034 202 202 194
3.67723100500734 1.81884569616833 -0.354178905487061 0.3711749 -0.8807448 0.294139 198 197 189
3.65921746807725 1.88920969458141 -0.36276313662529 -0.1004061 0.9789028 -0.177955 171 173 166
3.62850550430448 1.82689613791027 -0.348396778106689 -0.9465984 0.1287652 0.2955858 188 189 183
3.64624475556047 1.80489439459362 -0.350976496934891 0.376419 -0.421507 0.8250095 198 198 188
3.66020709889562 1.88848692865887 -0.357414662837982 -0.1929484 0.8763133 0.4414135 229 179 215
3.69101913886697 1.83258933516064 -0.343370765447617 0.8627242 -0.5030332 -0.05162034 183 186 182
3.65374668555886 1.88427264185467 -0.354267865419388 -0.3999237 0.8799919 0.2562717 178 180 174
3.67683070021302 1.87583667727032 -0.323756039142609 0.1587678 0.5807431 0.7984549 190 188 178
3.69793545323045 1.85520631762066 -0.357625931501389 0.8297352 -0.4333165 -0.3518185 188 190 186
3.63644479828508 1.81982416601696 -0.33789998292923 -0.3099878 -0.6022477 0.7356666 190 190 178
3.67981072383554 1.84624404402294 -0.307032346725464 0.391234 -0.1121639 0.9134305 205 202 196
3.69391020255716 1.87426514120617 -0.32299992442131 -0.01472567 0.5390854 0.8421224 199 198 191
3.65401355045469 1.83252996893444 -0.317618101835251 0.1110883 -0.7893586 0.6037983 192 191 179
3.68427628892095 1.83089024515667 -0.327456593513489 0.3586386 -0.7827154 0.5086599 197 195 189
3.65892837064893 1.85738582106152 -0.312325239181519 -0.3771446 0.3659467 0.8507908 193 194 188
3.61874260621698 1.82877904863873 -0.357574045658112 -0.8784117 0.2369165 0.4150463 190 193 192
3.70645297187001 1.87488777132549 -0.326157838106155 0.6863446 0.3245615 0.6508386 190 190 183
3.65456635373265 1.88796419592419 -0.359713226556778 -0.3611328 0.8347788 0.4156049 182 185 177
3.64426549392373 1.88540679903546 -0.353667408227921 -0.07551506 0.8713326 0.4848474 185 188 185
3.70176056640775 1.86350149603405 -0.347996473312378 0.9042819 -0.0617904 0.4224408 190 193 189
3.67232360559137 1.85273785086193 -0.30692857503891 -0.02082603 0.1846656 0.9825807 198 196 191
3.64458424466283 1.83521360846081 -0.327647864818573 -0.5761906 0.7975015 0.1788736 186 188 179
3.65361326056154 1.8180006215147 -0.341636151075363 0.01809781 -0.9929461 0.1171773 191 191 182
3.66821683066518 1.83384961576977 -0.319812327623367 0.2432252 -0.8151984 0.5256358 197 197 188
3.67441407459409 1.88695604296246 -0.343519032001495 -0.07379371 0.9867609 -0.1444209 200 173 188
3.66597811000974 1.81753355951824 -0.32944917678833 -0.01883532 -0.7850021 0.6192067 215 199 207
3.64760874825151 1.8380600878767 -0.330071896314621 -0.8184087 0.4114664 0.4011266 189 190 184
3.64151527600915 1.83743745775738 -0.334653109312057 -0.4805529 0.4776277 0.7354867 188 188 182
3.67220500724942 1.82736319990673 -0.3336301445961 -0.121003 -0.8612483 0.4935683 239 187 226
3.66634874659211 1.82502812834301 -0.337336599826813 0.0580175 -0.8634369 0.5011094 196 195 183
3.67057711499364 1.82340020628491 -0.337917774915695 0.005981999 -0.8092092 0.5874903 244 191 230
3.706764316732 1.88089234324017 -0.36289656162262 0.9557281 -0.04458048 -0.2908548 178 180 175
3.65213436501653 1.85723013372936 -0.321243017911911 -0.7689621 0.3234516 0.5514312 191 190 182
3.66121897714765 1.81559879274883 -0.330071896314621 -0.1299251 -0.6430163 0.7547513 220 200 209
3.69045575576455 1.87758607359448 -0.325883567333221 -0.2226829 0.5378876 0.8130739 193 193 184
3.68980044739873 1.83114821405926 -0.335604935884476 0.794746 -0.5220032 0.3096634 201 201 199
3.71370286362798 1.88271588774243 -0.339056432247162 0.9155038 0.3981606 -0.05762729 180 181 173
3.62760852890641 1.86376828642407 -0.360865414142609 -0.810205 0.2255903 0.5409961 190 190 184
3.62826085704 1.80923838110485 -0.356046974658966 -0.4371682 -0.8244591 0.3593759 191 190 184
3.68597090857656 1.81797832937756 -0.361695647239685 0.5595026 -0.8111418 0.170311 194 192 187
3.63306448476941 1.87884635420361 -0.365075975656509 -0.8647192 0.4918998 0.1014663 179 180 173
3.65085562186868 1.8840612837843 -0.357236742973328 -0.07172643 0.9002583 0.4294069 171 175 166
3.65394683795602 1.80995006056347 -0.353912025690079 0.1461053 -0.9275587 0.3439304 195 194 184
3.65401355045469 1.82579905481854 -0.327343910932541 0.2759838 -0.9194103 0.2802098 205 205 200
3.6437391700092 1.81288570852795 -0.35162141919136 -0.02907105 -0.9835462 0.1783024 194 193 186
3.6457406790796 1.85589570494213 -0.330872505903244 -0.7370835 0.3157239 0.5975168 188 187 181
3.63364269452722 1.86021012754955 -0.352889031171799 -0.7780347 -0.1656076 0.6060001 183 184 175
3.65247905867727 1.87323100061932 -0.335553795099258 -0.8168238 0.4260705 0.3889251 184 185 179
3.64823143797548 1.82431644888439 -0.327403217554092 -0.09054149 -0.8802859 0.4657242 197 195 187
3.7086323859039 1.88142604322949 -0.332918465137482 0.3846767 0.6460555 0.6592693 188 188 182
3.6719381423536 1.81395310850659 -0.342570185661316 0.9661238 -0.2471862 0.07418706 198 198 190
3.70378429310949 1.86959487886944 -0.362140446901321 0.9605742 -0.02690746 -0.2767185 180 181 181
3.65383564549119 1.8179116913847 -0.334475189447403 0.8908921 0.4146703 0.1853642 208 203 199
3.62722305076749 1.85763043852368 -0.361814260482788 -0.8242141 -0.09601168 0.5580796 191 192 186
3.69657888131768 1.8482455679945 -0.357915043830872 0.8872734 -0.182132 -0.4237616 182 183 182
3.67004041987092 1.88526589365521 -0.329567819833755 -0.2488022 0.7054369 0.6636687 184 184 175
3.6799219013992 1.87273067923107 -0.322088122367859 0.02649953 0.677675 0.7348839 193 195 188
3.7008487643543 1.86105520220318 -0.363993674516678 0.8326602 -0.457071 -0.3126709 185 188 184
3.66873573380143 1.86922127695599 -0.317297846078873 -0.1034458 0.5083427 0.8549191 191 190 183
3.68014430123002 1.82602889032879 -0.33943447470665 0.2606168 -0.9127988 0.3144473 188 190 189
3.64703052359254 1.871640867906 -0.348708122968674 -0.2637609 0.7450964 0.6125859 198 199 195
3.65003279464872 1.82571739645519 -0.325157105922699 0.03640229 -0.8561976 0.5153645 199 198 191
3.63555524366529 1.85304922552624 -0.351843804121017 -0.8340275 0.2020149 0.5134084 183 184 177
3.70894373076589 1.87946898432293 -0.35328933596611 0.8950137 -0.2631789 -0.3601213 184 185 180
3.65318626778753 1.84116465540447 -0.313730716705322 -0.8103873 0.1545458 0.5651442 183 185 179
3.66891363876493 1.82049138041058 -0.32735875248909 -0.1103252 0.06906741 0.9914928 225 196 218
3.70311710851819 1.87430960627117 -0.35982757806778 0.9111826 -0.3487382 -0.2193807 183 184 181
3.68679375069768 1.8618113467268 -0.314927160739899 0.2169547 0.4791843 0.8504781 195 194 185
3.71008903401525 1.87353116961041 -0.343115031719208 0.8248515 -0.5254613 -0.2085916 186 187 185
3.69613409655721 1.84962434263745 -0.327670097351074 0.908939 -0.4130462 -0.05676898 203 205 201
3.68474776166112 1.81728894205609 -0.361339837312698 0.3833479 -0.8696018 0.3111865 194 194 189
3.68354686217935 1.87257499189892 -0.320464670658112 -0.00188533 0.7835926 0.6212722 188 191 187
3.6988472552839 1.84975773783245 -0.349330812692642 0.9495291 -0.2989361 0.09503596 184 185 180
3.63493255394132 1.83218903036633 -0.338211327791214 -0.83364 0.5499935 0.05051236 178 180 173
3.63036615269811 1.81088418455639 -0.352903842926025 -0.2331338 -0.8013617 0.5508792 197 196 186
3.65827707069547 1.88968617411175 -0.360075384378433 -0.14629 0.9652641 0.2164819 188 185 185
3.70138249414594 1.86652595491924 -0.347596168518066 0.9135749 -0.3441983 0.2165834 179 181 173
3.65303503590257 1.87746746035137 -0.348352283239365 -0.7004883 0.305729 0.6448612 177 180 172
3.70004815476567 1.86416859121838 -0.368011504411697 0.8682076 -0.3260778 -0.374017 175 178 167
3.68491083996923 1.88897246809521 -0.333630114793777 -0.3540608 0.8872915 0.2955584 186 187 182
3.63564418869645 1.83846039267101 -0.347284823656082 -0.8009924 0.09647828 0.5908495 180 181 173
3.63591106849344 1.86545843573132 -0.348841547966003 -0.761245 -0.002174373 0.6484607 187 187 182
3.6699959250036 1.87782330008068 -0.325475841760635 -0.1115183 0.6419521 0.7585916 197 198 192
3.62617782371671 1.85917968245068 -0.363497018814087 -0.8224356 -0.07557994 0.5638151 188 189 183
3.658354586536 1.88120359869518 -0.333719074726105 -0.5626469 0.7730746 0.2928892 191 193 186
3.70439217107923 1.87107748480358 -0.353926867246628 0.928932 -0.3460637 -0.131626 191 191 187
3.69546692686708 1.84891266317883 -0.361695647239685 0.8985912 -0.20666 -0.3870731 183 183 181
3.66037388759286 1.82231492491284 -0.340880006551743 0.2268027 -0.7869435 0.5738297 202 201 192
3.66998111324937 1.81671077700176 -0.355187058448792 0.06064327 -0.816618 0.5739838 203 202 191
3.64408386366994 1.86727089376965 -0.34301495552063 -0.4331811 0.6143704 0.6594718 198 198 191
3.67047036307485 1.88609618635693 -0.347507208585739 0.06821189 0.9800928 0.1864547 140 144 158
3.69275378304155 1.83718330355206 -0.335695177316666 0.866099 -0.3883695 0.314709 191 193 190
3.7035174133125 1.86007661314526 -0.349775582551956 0.9137978 -0.1961582 0.3556622 169 172 171
3.67220500724942 1.87486547918835 -0.322154819965363 -0.03498757 0.6295632 0.7761611 187 186 173
3.65779418366582 1.85756368132153 -0.313059091567993 -0.5135708 0.4078815 0.7549025 184 185 181
3.6921014400068 1.84292299242535 -0.321472823619843 0.5762982 -0.5667854 0.5887569 197 199 188
3.63186357038648 1.82469458075085 -0.339656889438629 -0.8680906 0.00645991 0.4963637 189 192 185
3.70760939138562 1.84891266317883 -0.362629681825638 0.141639 0.5159829 0.8448077 194 193 192
3.68875966089399 1.82339138479748 -0.358021795749664 0.879402 -0.2494087 0.4055212 191 192 189
3.64485110955865 1.88066989870587 -0.348530203104019 -0.1922929 0.3290325 0.9245329 196 193 187
3.63139656799466 1.87050671072521 -0.360361337661743 -0.9052582 0.3382716 0.2570602 189 191 187
3.67869876938493 1.86416859121838 -0.314237773418427 0.03743845 0.4811504 0.8758382 194 193 188
3.67051484304101 1.82498366327801 -0.336565673351288 0.04394571 -0.7920984 0.6088094 232 194 220
3.70393995063932 1.86101073713818 -0.329204559326172 0.7918992 -0.6093398 0.04000894 186 188 187
3.6944172443691 1.84313947649517 -0.335667192935944 0.9305962 -0.2322573 0.2829261 191 191 189
3.64003638046415 1.88495094271221 -0.359482884407043 -0.4965937 0.8597417 0.1193269 193 194 191
3.63998078423173 1.84735602827587 -0.337344020605087 -0.8385484 0.03429493 0.5437467 191 191 187
3.63253074007661 1.81208497973004 -0.350353807210922 0.02639931 -0.8718761 0.4890145 196 195 185
3.63230835514695 1.80830437632122 -0.365431785583496 0.05528922 0.4062548 0.9120856 176 180 175
3.641159451181 1.80734819860974 -0.367989271879196 -0.05688352 -0.9974233 -0.04371597 186 186 180
3.65217513459356 1.84943170042553 -0.317603260278702 -0.889167 0.1259591 0.439905 191 191 185
3.69288720803888 1.84348637552776 -0.367344349622726 0.9465132 -0.2903882 -0.1406683 181 179 177
3.65855029838712 1.87980253191509 -0.331250548362732 -0.5545097 0.6811813 0.4780283 195 196 189
3.68879524486692 1.82184786291638 -0.361050724983215 0.865142 -0.4409762 0.2388919 185 187 181
3.66861118989618 1.82757217379131 -0.333941459655762 0.1275699 -0.8361984 0.5333837 216 192 206
3.65623744445474 1.88467294664898 -0.348485738039017 -0.3519549 0.9012012 0.2529113 162 166 153
3.63951376693876 1.84895712824383 -0.338834017515182 -0.860932 0.05553753 0.5056794 198 201 196
3.68612658100755 1.88929862471142 -0.343593150377274 -0.1682094 0.9643117 -0.2044712 185 189 185
3.67936593907506 1.81493157835522 -0.366454780101776 0.4995371 -0.8611373 0.09436771 174 181 168
3.69041127579839 1.8819449612669 -0.367388814687729 0.2095519 0.8103958 -0.5471258 178 180 173
3.65259026604325 1.80946082563915 -0.361660063266754 0.1394424 -0.9534112 0.2675125 196 196 187
3.6228790493551 1.80261129828015 -0.366855084896088 0.4540799 -0.2109258 0.8656337 199 198 196
3.70497036593587 1.86268598528423 -0.353526562452316 0.9702899 -0.1726583 0.169489 179 181 178
3.64429513233335 1.81962401361981 -0.336054146289825 0.007394099 -0.7236987 0.6900764 212 211 207
3.68968479948671 1.83877176733532 -0.322599619626999 0.5418258 -0.5451432 0.6397216 182 185 177
3.6527088643852 1.86923903914013 -0.331576734781265 -0.8644451 0.4195733 0.2769347 179 179 171
3.64865396040113 1.8565406271986 -0.326335728168488 -0.8391267 0.3714184 0.3973849 189 189 182
3.62808296697767 1.84399790258923 -0.361250877380371 -0.7887963 0.5023777 0.3541427 191 192 184
3.64353901761205 1.85725230665722 -0.33380800485611 -0.7136976 0.3870287 0.5838189 187 187 181
3.6896403344217 1.82187015505352 -0.358582198619843 0.8677933 -0.3608565 0.3416392 193 193 191
3.64191558080346 1.82658476324597 -0.327759027481079 -0.4287887 -0.7674854 0.4765568 194 197 193
3.70231652873189 1.84731156321087 -0.35867115855217 0.1297557 -0.9561616 -0.2625232 185 185 184
3.63722316044004 1.85936493368664 -0.348330080509186 -0.8870558 -0.07416458 0.4556662 186 187 181
3.70525205748708 1.86443550081768 -0.357781589031219 0.9713715 -0.1455472 -0.1877592 180 182 181
3.71205717938573 1.88551802130261 -0.346662133932114 0.9686608 0.2431272 0.05084619 187 188 182
3.65218996124894 1.81287450285473 -0.351899385452271 0.1341054 -0.9017875 0.4108468 194 193 182
3.63328686969907 1.82018000574627 -0.338834017515182 -0.5753096 -0.4934449 0.6523274 193 191 188
3.64476216452749 1.82613999338665 -0.324645578861237 -0.2998857 -0.7848024 0.5423595 201 200 197
3.69190869348676 1.88671893568554 -0.330116361379623 0.3292561 0.4740866 0.8165981 181 182 174
3.62790504711301 1.84846789331951 -0.365520745515823 -0.7630427 0.0569996 0.6438299 175 176 167
3.64880964773328 1.80376762838879 -0.3588045835495 -0.6119625 0.1217162 0.7814647 198 198 191
3.69493319707544 1.83903855772534 -0.339501202106476 0.8759105 -0.3569847 0.3245656 193 196 194
3.64896532016427 1.83514685125866 -0.315794467926025 -0.6217175 -0.2445034 0.7441004 191 193 187
3.66653407233388 1.8896878430418 -0.359849810600281 0.01167485 0.988346 0.1517757 184 158 173
3.69751291590364 1.85789722891369 -0.369034498929977 0.83178 -0.4684272 -0.2978559 186 186 184
3.65383564549119 1.86952824087658 -0.327380985021591 -0.8035469 0.476969 0.3561081 182 182 173
3.66440357881219 1.88560695143261 -0.33928769826889 -0.3840209 0.9166185 0.1110784 188 188 185
3.68465880172879 1.87030655832806 -0.318062871694565 0.03311742 0.6465956 0.7621137 190 191 184
3.65412919836671 1.88680786581555 -0.357390195131302 -0.4107563 0.7970759 0.4426615 173 177 167
3.67832813280256 1.88602203817883 -0.359590381383896 -0.1938836 0.9797905 -0.04919019 236 173 221
3.69991472976835 1.86086244078198 -0.319916129112244 0.6181193 -0.4357885 0.65423 201 202 198
3.67756459730298 1.88584048243084 -0.362129330635071 -0.1812347 0.9833274 -0.01487171 210 174 202
3.6511224867645 1.87982482405224 -0.348574697971344 -0.3666365 0.2250501 0.9027348 197 197 192
3.69431050735147 1.85167927237072 -0.315723329782486 0.8929119 -0.29412 0.3408838 185 187 181
3.67496263104112 1.84579927416363 -0.305831462144852 0.2077315 -0.0234927 0.9779037 191 190 180
3.67214570062787 1.86100322695294 -0.313429772853851 -0.2385832 0.6355631 0.7342599 192 192 182
3.63720092790754 1.84904617758312 -0.342392265796661 -0.9323226 0.1910793 0.3070234 184 185 178
3.63270865994127 1.84290821047344 -0.349731117486954 -0.7753453 0.1669318 0.6090759 180 182 175
3.6662227274719 1.84001702757397 -0.30798864364624 0.03291492 -0.7662177 0.6417375 191 190 180
3.68259800093801 1.88772708864727 -0.345839291810989 -0.2192865 0.9755984 -0.01100718 174 175 170
3.65852806585462 1.83147735090771 -0.321843504905701 0.2863447 -0.7790437 0.5577613 189 189 176
3.68212357776792 1.84228546114483 -0.315549850463867 0.4071846 -0.8298494 0.3815112 189 189 179
3.68064468222291 1.88740832300701 -0.341814041137695 -0.2479898 0.9637043 -0.09886929 216 183 205
3.6595732929054 1.83156628103771 -0.322377234697342 0.1971653 -0.8158597 0.5435979 189 190 174
3.63786808269651 1.88347203226605 -0.360806107521057 -0.6701592 0.7332076 0.1152963 187 187 182
3.63787697868974 1.86130423040905 -0.347667336463928 -0.8650033 -0.0704944 0.4967894 188 188 182
3.70022607463033 1.85730416269817 -0.325979918241501 0.8039848 -0.5521044 0.2208827 203 203 200
3.69898068028123 1.851581401544 -0.342792570590973 0.917836 -0.3497163 0.1878177 177 179 169
3.68045564609201 1.86157781572857 -0.314093232154846 0.08099689 0.4811245 0.8729025 198 196 190
3.65178965645463 1.86812717409649 -0.334297299385071 -0.8391073 0.373587 0.395388 171 172 158
3.66879133003385 1.86096615286389 -0.315538763999939 -0.2747967 0.5465654 0.7910455 183 183 173
3.70075980442197 1.87739331217327 -0.324319422245026 0.2173489 0.5116706 0.8312356 187 187 180
3.65761626380117 1.88480634184399 -0.346306324005127 -0.277643 0.9225009 0.2681537 168 170 157
3.6444508196655 1.85943920107403 -0.334089726209641 -0.6184645 0.5543905 0.5569137 191 192 184
3.66575571017892 1.8111065098814 -0.336921483278275 0.1914677 -0.8460892 0.4974667 204 202 195
3.69938097017438 1.87817913980999 -0.32442319393158 0.07457519 0.5531192 0.8297576 188 188 184
3.65579267459542 1.84953541250744 -0.31354096531868 -0.7441975 0.246719 0.6207252 196 197 193
3.63306448476941 1.82827503176251 -0.342748075723648 -0.7893305 0.5901203 0.1694562 191 193 186
3.6687535257879 1.88967222662487 -0.357763826847076 0.1319183 0.9688841 0.2094307 221 171 208
3.64313130694062 1.86339766474285 -0.339501202106476 -0.4947067 0.5785568 0.6484885 187 187 178
3.66468825059564 1.82284874411144 -0.341836273670197 0.04849712 -0.8580084 0.511341 200 200 189
3.62121111767919 1.82413858862438 -0.359872043132782 -0.8367699 -0.3879735 0.3863841 192 195 190
3.65210100131662 1.81159574480572 -0.35444575548172 -0.05419524 -0.9252126 0.3755588 196 195 185
3.68678485470445 1.8884980151228 -0.353271543979645 0.08930104 0.9658875 0.2430775 186 187 181
3.69195318835408 1.83399028273144 -0.339323282241821 0.8692803 -0.475151 0.1363203 195 195 192
3.69488871710927 1.838238067346 -0.349286317825317 0.7467396 -0.640435 -0.1795074 188 189 185
3.68214581030042 1.8344573447279 -0.323066622018814 0.2230339 -0.6684868 0.7094936 194 192 182
3.66668974476487 1.87213010283032 -0.32095393538475 -0.09508914 0.6530796 0.7512956 193 195 187
3.66471790390641 1.88918001146832 -0.355157405138016 -0.2016522 0.9576448 0.2055549 212 172 201
3.6634873362127 1.82680720778027 -0.331628620624542 0.3149209 -0.8658605 0.3887292 224 190 211
3.68003310876519 1.85847539396801 -0.311702519655228 0.1938471 0.6290339 0.7528211 184 188 183
3.67522949593694 1.88667447062054 -0.346884518861771 -0.141849 0.9872614 0.07206849 191 191 188
3.63075163083703 1.84535450430432 -0.355869054794312 -0.8683686 0.3712335 0.3288187 182 185 176
3.63444328921468 1.83214456530132 -0.345350027084351 -0.8117375 0.4653674 0.3528673 178 179 170
3.63427650051744 1.82975382299938 -0.331506311893463 -0.8337907 0.2823667 0.4744071 193 194 190
3.6911080987993 1.85038048716107 -0.312369704246521 0.5760804 -0.3844501 0.7213386 200 200 195
3.65041085200937 1.86344212980786 -0.331851005554199 -0.9010131 0.3509831 0.254924 183 184 177
3.70476279276044 1.88974339457073 -0.343326300382614 0.04798844 0.9795068 0.1956108 187 188 181
3.69608961659105 1.88929862471142 -0.35342276096344 0.0456885 0.971929 -0.2307956 179 180 173
3.67667502778203 1.8180006215147 -0.353378295898438 0.2794245 -0.9164956 0.2862829 193 193 185
3.67162679749162 1.81043929548779 -0.348797082901001 -0.002114724 -0.8897572 0.4564294 202 203 194
3.70534101741941 1.88244897814312 -0.361028492450714 0.9363611 0.1558984 -0.3145212 187 188 182
3.70191622393758 1.85620707960644 -0.352844566106796 0.871681 -0.4763919 -0.1149908 181 183 179
3.66858006137044 1.87717837782421 -0.32544618844986 -0.1198463 0.6338441 0.7641194 192 194 186
3.65768297629983 1.81857890577831 -0.344794064760208 0.1228186 -0.9197865 0.3727041 201 201 194
3.6595732929054 1.80999452562847 -0.349197387695313 -0.4749662 0.3767938 0.7952569 200 200 187
3.68459208923013 1.84390897245922 -0.311791479587555 0.3863343 -0.8500944 0.3578901 189 189 181
3.68688269572885 1.86025459261456 -0.313926428556442 0.1867732 0.5504442 0.8137118 194 192 184
3.622760436112 1.83923143835583 -0.365787625312805 -0.8793377 0.4079821 0.2455929 184 186 181
3.69942546504171 1.85607368441143 -0.334608644247055 0.8369057 -0.5466699 -0.02721964 188 189 186
3.70729804652364 1.87310869188824 -0.35008692741394 0.7193943 -0.5949451 -0.3584861 178 181 176
3.64920995252759 1.87248594255963 -0.345616906881332 -0.611859 0.7206499 0.326025 181 183 172
3.67991449552209 1.8278895089201 -0.329805016517639 0.144173 -0.9179968 0.3694536 208 189 202
3.62915042656095 1.81882340403118 -0.343548685312271 -0.7571883 -0.2909544 0.5848175 187 190 186
3.70743147152097 1.87017316313305 -0.327225297689438 0.9542661 -0.1715259 0.2448572 196 198 193
3.65656361597211 1.88931340666332 -0.361384302377701 -0.1649427 0.9819311 0.09276378 182 182 179
3.65850581842096 1.85963184328594 -0.315438687801361 -0.4423598 0.5332569 0.7210789 192 191 188
3.65979567783506 1.82182568998852 -0.340479701757431 0.3187037 -0.755274 0.5727034 205 202 194
3.6801961870733 1.88733167143383 -0.335784822702408 -0.15513 0.9847022 0.07934867 191 192 191
3.67887667434842 1.82691843004742 -0.335564911365509 0.1146643 -0.9388885 0.3245619 226 200 218
3.70651227849157 1.87365717382946 -0.325372070074081 0.7174687 0.2711169 0.6416652 192 192 184
3.68634896593721 1.81822294683972 -0.359605193138123 0.491801 -0.7784043 0.3901519 197 197 190
3.68857285993726 1.8210250803999 -0.356714129447937 0.7594016 -0.4400962 0.4791915 181 184 182
3.70075980442197 1.85691875906506 -0.345327794551849 0.9616818 -0.2153065 0.1697384 177 179 173
3.69611186402471 1.84788972826519 -0.338945209980011 0.9455485 -0.237619 0.2224302 189 190 187
3.6644955040756 1.84504312964001 -0.3040671646595 -0.03366759 -0.1188354 0.992343 187 187 179
3.64000303166539 1.85923153849163 -0.341903001070023 -0.8929673 0.1715134 0.4161641 154 159 148
3.68892866986425 1.8327004382185 -0.331917703151703 0.7363214 -0.5751708 0.3563838 200 199 198
3.71007344740064 1.88937861414471 -0.351679235696793 0.4209745 0.9067673 -0.0235287 175 176 170
3.66388764100702 1.82867521734753 -0.327180832624435 0.2799128 -0.8738047 0.3976358 236 190 224
3.68272402005822 1.88856477232495 -0.337544173002243 -0.2942515 0.9556551 0.01180536 196 193 194
3.6221673996988 1.83508009405651 -0.363052248954773 -0.9019675 0.3294645 0.2791198 185 185 185
3.64229363816411 1.87293071241894 -0.348452389240265 -0.09480117 0.5005196 0.8605189 190 191 185
3.63813496249349 1.88267142267742 -0.357069969177246 -0.6511584 0.5948835 0.4712816 186 185 178
3.70885477083356 1.87439853640118 -0.349820077419281 0.7991354 -0.4947568 -0.3414649 173 176 170
3.65814999359281 1.84913510771313 -0.310323715209961 -0.5022342 0.5679022 0.6521104 193 195 187
3.68470328169496 1.82694060297527 -0.33558714389801 0.2785149 -0.9183013 0.2813401 199 201 196
3.63882434981496 1.85542876215496 -0.341591656208038 -0.9403402 0.2166264 0.2623612 165 168 160
3.6339273514095 1.87736970873394 -0.359382808208466 -0.8444765 0.4775098 0.2425776 185 187 181
3.65833902972371 1.82141417952099 -0.331806540489197 0.6794178 0.4733596 0.5606444 240 195 229
3.63646704571874 1.87084025831738 -0.349731087684631 -0.592845 0.390173 0.7044855 189 189 183
3.6851925464216 1.84415358992138 -0.314949423074722 0.3492547 -0.8944708 0.2791829 192 193 186
3.65855029838712 1.86348659487286 -0.317425340414047 -0.303507 0.3494171 0.8864487 182 181 168
3.69893620031507 1.84708911867657 -0.353333801031113 0.9518026 -0.2724038 0.1409537 184 183 178
3.62577009814412 1.8616333672575 -0.36340805888176 -0.8601381 0.1093805 0.4981952 187 188 181
3.66248658912809 1.88127035589733 -0.329412132501602 -0.404357 0.6903768 0.599896 193 193 184
3.64696381109388 1.81299681158581 -0.347240328788757 0.1407859 -0.9645044 0.223407 190 191 187
3.66253106909425 1.82353813143292 -0.339456737041473 0.1112887 -0.8984981 0.4246363 195 193 184
3.70111561434896 1.86336798162975 -0.346929013729095 0.9224938 -0.08946468 0.3755015 187 190 186
3.66740139442117 1.88969892950573 -0.360806107521057 0.06176938 0.9864988 0.1516725 168 164 163
3.63100366907747 1.85339016409435 -0.357203394174576 -0.8488325 -0.07795389 0.5228828 182 184 177
3.63637808578641 1.84366435499706 -0.341435998678207 -0.9103649 -0.1020078 0.4010363 188 189 182
3.69640096145303 1.85202617140331 -0.333363264799118 0.8965133 -0.4429296 0.008790328 192 193 191
3.657571783835 1.81030590029278 -0.363163411617279 0.1326014 -0.7837341 0.6067765 200 199 191
3.64691934602887 1.83679241629162 -0.31941944360733 -0.8134342 0.2145279 0.5406501 177 180 172
3.69697917121083 1.85562891455212 -0.36289656162262 0.8387187 -0.4995061 -0.2168978 186 186 180
3.68572627621324 1.8413514563612 -0.318596601486206 0.2834137 -0.6397544 0.7144166 190 190 184
3.65668222921521 1.81470925303021 -0.351421266794205 0.1800778 -0.793249 0.5816598 199 198 187
3.66618937867315 1.88758618326702 -0.349608778953552 -0.1164336 0.9152145 0.3857791 236 181 222
3.63751227276952 1.84784526320019 -0.341903001070023 -0.9247146 0.1625183 0.3442248 189 191 186
