ply
format ascii 1.0
comment File exported by Rhinoceros Version 7.0
element vertex 496
property float x
property float y
property float z
property float nx
property float ny
property float nz
property uchar red
property uchar green
property uchar blue
end_header
3.86995360868604 2.00985593290844 -0.323177814483643 -0.05018604 -0.2802161 -0.9586242 193 191 187
3.84798154848249 2.0101005503706 -0.366632699966431 0.7462498 -0.5778437 -0.3304661 173 175 162
3.83453438299329 1.99472600908795 -0.345817059278488 0.6533349 -0.7182823 -0.2392156 175 178 175
3.92069396989972 2.04122609587231 -0.375394850969315 -0.8278355 -0.5290108 -0.1866441 183 185 181
3.86261475699575 1.97665316553631 -0.340272158384323 -0.1739815 0.9844559 0.02402103 189 190 189
3.93315664547116 2.01975221128979 -0.368901073932648 -0.7632837 -0.5641495 -0.3148544 182 183 177
3.85794458406598 2.0034436652235 -0.32163593173027 0.4766811 0.01461502 -0.8789548 190 191 189
3.90817490833432 1.98948497267285 -0.334000766277313 -0.5135717 0.6445566 -0.566384 205 205 200
3.86906403916509 2.02775818796673 -0.336521178483963 0.4929525 -0.5796509 -0.6488472 192 192 185
3.91234100478322 1.99484462233105 -0.350309312343597 -0.3559168 0.9218111 0.1535824 181 182 175
3.92190376537473 2.02882570715466 -0.363207906484604 -0.6975192 -0.6088352 -0.3778712 190 190 182
3.86559478061826 1.97825438471356 -0.346350789070129 -0.2422605 0.9563494 0.1634185 194 194 190
3.91253004091413 1.9947778651289 -0.351454615592957 -0.3220127 0.9409057 0.104901 185 186 179
3.8962222399059 2.0545249650053 -0.349757790565491 -0.1207874 -0.9351191 -0.3331106 191 193 186
3.91283026950986 2.04741734953442 -0.369723916053772 -0.5263873 -0.8444633 0.09898543 181 183 176
3.85645458715589 1.98267991037884 -0.328248292207718 0.2860311 0.4081236 -0.866961 197 197 192
3.9159214855972 2.00651998014965 -0.330249786376953 -0.3449015 -0.1218931 -0.9306906 181 185 180
3.88638076799543 1.99150878878155 -0.325342416763306 -0.2311398 0.1041871 -0.9673259 209 208 203
3.83030155914457 1.97200519533672 -0.340390741825104 0.4553688 0.8705317 -0.1865847 198 198 192
3.87437916415364 2.02966339083233 -0.332970350980759 0.6339529 -0.3475442 -0.6908812 187 187 178
3.85336337106855 2.01543778868237 -0.3377665579319 0.6449324 -0.7377155 0.1995946 181 182 174
3.8483818532768 1.98601574392834 -0.362740874290466 0.1409577 0.7465987 0.6501702 181 183 175
3.84726989882619 1.98906249495068 -0.364987015724182 0.2259973 0.8370416 0.4982837 172 175 161
3.88156232851178 2.0337182948164 -0.331406235694885 0.02090736 -0.2507631 -0.9678227 193 191 186
3.8465582491699 1.97367317171612 -0.351228535175323 -0.1884634 0.8702112 0.4552076 193 193 191
3.83268115537793 1.97538108320751 -0.335960775613785 0.1780276 0.5954117 -0.7834482 208 208 203
3.86824122684629 1.98007792921581 -0.351688146591187 -0.3615762 0.9250535 -0.1163556 198 199 193
3.85754427927167 2.01819545717755 -0.357803821563721 0.7637268 -0.6308781 -0.1368001 184 184 177
3.8299680115524 1.9726945826582 -0.338834017515182 0.5822858 0.7276433 -0.3625998 206 205 197
3.8280910314861 1.97940189333477 -0.337811052799225 0.8548515 0.0560479 -0.5158368 193 193 188
3.90807113664777 2.0437257954649 -0.343726605176926 -0.6980593 -0.5259843 -0.4858536 186 187 180
3.85294083374173 1.98111206980267 -0.331128239631653 0.2648989 0.6048263 -0.7510085 194 196 187
3.85518694537313 2.02108652086773 -0.366113781929016 0.7236062 -0.548953 -0.4183835 189 189 184
3.82908732312352 1.97933954687634 -0.335578262805939 0.6678124 0.1361258 -0.7317762 197 198 193
3.86061326282651 2.02250987978497 -0.338166862726212 0.7414038 -0.6608127 -0.1168202 181 182 176
3.85451236980588 1.97917360754528 -0.333415150642395 0.05947452 0.8582855 -0.5097144 200 200 195
3.85209575908811 1.98499268980541 -0.36007222533226 0.2449326 0.7091701 0.6611246 190 192 185
3.92824185507924 2.02302140684643 -0.348029851913452 -0.4704713 -0.8523725 -0.2282934 175 176 167
3.85941234844358 2.01308054419079 -0.326558142900467 0.1988836 -0.6213083 -0.7579059 201 202 197
3.88729996102483 2.03963381739178 -0.33238473534584 0.008394005 -0.3242372 -0.9459385 197 196 191
3.91645521538884 1.99637908430615 -0.350865304470062 -0.213546 0.9768698 0.01111586 188 189 183
3.82732898610265 1.98320621939221 -0.341339617967606 0.9809908 -0.1527722 -0.1196571 189 191 184
3.91056189554364 1.99517816992321 -0.366365849971771 0.07656834 0.9966688 -0.02808407 191 191 185
3.9041570784393 2.00756520720043 -0.328337252140045 -0.1549176 -0.132796 -0.9789616 205 191 198
3.89066547768743 1.99143464060345 -0.326172679662704 -0.3111197 0.1590603 -0.9369655 204 205 199
3.85260722654493 2.01979667635479 -0.370932221412659 0.8214217 -0.5030014 -0.2688048 186 185 179
3.87258890884549 1.99298758001843 -0.323756039142609 0.196587 0.329995 -0.9232859 191 191 183
3.93379417675168 2.0232955882124 -0.376002699136734 -0.7207474 -0.6395896 -0.2672983 186 187 183
3.90451291816861 2.05947095842877 -0.366365820169449 -0.5903491 -0.7175456 0.3696164 180 181 173
3.93337903040082 2.01921851130047 -0.351287841796875 -0.7725459 -0.6229417 -0.1229491 178 180 172
3.84148777144582 1.99800247641125 -0.342525690793991 0.5019529 -0.8549181 -0.1309899 187 188 185
3.85011646764905 2.0117684075407 -0.365594863891602 0.7558205 -0.5696495 -0.3228543 186 187 180
3.92025808113248 2.01288027258434 -0.332295775413513 -0.342118 -0.2282966 -0.911502 187 187 180
3.90753740685613 2.02744681330242 -0.333719074726105 -0.3622986 -0.203302 -0.9096197 188 184 179
3.92190376537473 2.02742464037457 -0.348396778106689 -0.7275394 -0.6827061 -0.06781486 185 187 181
3.91932404654653 2.04070121737042 -0.367477774620056 -0.8495276 -0.3613143 -0.3843889 187 190 183
3.90796736496122 2.05477113218823 -0.360109269618988 -0.9570409 -0.2417669 -0.1600673 186 187 180
3.8569215895477 1.97669763060131 -0.345327794551849 -0.4145057 0.9002131 -0.1334217 199 200 192
3.92274884002835 1.99849171133557 -0.363230139017105 -0.1324624 0.9385513 -0.3187086 193 194 186
3.86462367194326 2.0214645335249 -0.332051157951355 0.3420532 -0.6706488 -0.6582019 191 191 182
3.87973872440488 1.98405868502178 -0.3503537774086 -0.2194873 0.8833749 -0.4140943 193 195 188
3.8465063335243 1.97367317171612 -0.343615412712097 -0.060491 0.9499482 -0.3064951 198 198 193
3.86408252137334 1.97896606417217 -0.349493891000748 -0.3262345 0.9452825 0.003473236 189 189 184
3.90028751509816 2.06130344362774 -0.358039557933807 -0.04506354 -0.8523071 -0.5210969 200 201 197
3.8288782896343 1.9872722098402 -0.341725081205368 0.7349346 -0.5937198 -0.3276703 192 193 187
3.89203686135442 2.00576395483532 -0.327618181705475 -0.03944959 -0.09916292 -0.9942889 237 190 222
3.91327503936918 1.99444431753674 -0.333096385002136 -0.3308478 0.6077703 -0.7219107 208 208 203
3.87493512647779 2.0268538662962 -0.330531507730484 0.3611743 -0.4918279 -0.792249 182 184 172
3.85999057310254 2.02374035807171 -0.366069316864014 0.5728663 -0.6963087 -0.43241 185 185 176
3.87255237119825 1.98089129419842 -0.355881750583649 -0.283624 0.9322416 -0.2246843 195 196 188
3.84059820192487 1.9933769175581 -0.334608644247055 0.5063706 -0.5440639 -0.6690166 191 191 181
3.87624720352323 1.98247975798168 -0.333719074726105 -0.223207 0.8944716 -0.3874264 196 196 192
3.8746237816158 1.9827020833067 -0.344438254833221 -0.4826928 0.8480826 0.2185487 191 191 188
3.84989408271939 1.99170143099346 -0.370813608169556 0.1402862 0.8967902 0.4196274 174 174 159
3.87057629841001 1.97964305372753 -0.357559204101563 -0.3541158 0.9050736 -0.235465 194 195 188
3.86768523471982 2.01423687429943 -0.32544618844986 0.1401496 -0.5261555 -0.83876 199 199 194
3.82523111122281 1.98554868193188 -0.351020991802216 0.9654691 -0.1626675 -0.2034912 192 193 188
3.91690740602643 2.0334364840559 -0.357188552618027 -0.8668262 -0.4960074 -0.05088187 183 185 179
3.84397853034169 2.00074238272228 -0.337624222040176 0.7779372 -0.5266753 -0.3426759 185 186 177
3.82858917730481 1.97380656691113 -0.343103915452957 0.6668496 0.7433125 0.05289702 188 190 184
3.85672587769658 2.01562470884838 -0.329458087682724 0.2764651 -0.723645 -0.6323804 204 206 202
3.9286088110748 2.00702590437451 -0.339440047740936 -0.6827666 0.08078408 -0.7261568 203 204 198
3.85474217551381 2.01276916952648 -0.343370795249939 0.7818973 -0.5778197 0.2340107 181 181 174
3.87306705730588 2.03089398832836 -0.334230571985245 0.6811745 -0.2822307 -0.6755347 189 190 181
3.86212549226911 2.02215404005566 -0.353311568498611 0.6673375 -0.7310973 -0.1419765 184 184 177
3.85703278201253 2.0165942380003 -0.354045450687408 0.8397487 -0.513903 -0.1752879 171 174 165
3.83970866220624 1.99244279356518 -0.367344349622726 0.6324714 0.7115762 0.3060052 171 171 156
3.91176280992658 2.01127917261639 -0.330338776111603 -0.1625188 -0.2207059 -0.961705 205 192 197
3.85881189125211 2.01935190649548 -0.33222907781601 0.4799172 -0.7360514 -0.477397 195 197 195
3.84740332382352 2.00076014490643 -0.334608644247055 0.8894678 -0.3075581 -0.3380164 188 189 180
3.82723263519437 1.98646051378765 -0.345928251743317 0.9044297 -0.3640699 -0.222396 186 185 181
3.83245877044828 1.99282092543163 -0.359427273273468 0.790174 -0.4380616 0.428634 178 180 176
3.84802601354749 2.00556368322888 -0.345572412014008 0.7752054 -0.6189735 -0.126208 182 182 174
3.8491379679981 2.0048298308424 -0.328048169612885 0.7328343 -0.2757188 -0.6220394 183 183 174
3.8812065185848 2.04901868792095 -0.357203394174576 0.8149011 -0.5795313 0.008922934 184 186 179
3.86190310733945 2.02188713045635 -0.347373783588409 0.7288035 -0.6732792 0.1246616 175 176 169
3.91449571269185 1.99462718458691 -0.36723068356514 -0.1013444 0.9912672 -0.08437183 192 192 186
3.9126078845802 1.99041909666577 -0.33994597196579 -0.4267032 0.9017797 0.06868535 184 186 182
3.85250047462613 2.0094422766737 -0.326166719198227 0.5468678 -0.1981367 -0.8134356 200 200 194
3.89678010957868 1.98935479612866 -0.329188704490662 -0.4223072 0.2177169 -0.8799182 211 210 205
3.84762570875318 2.00560826750317 -0.343237340450287 0.8429735 -0.533025 0.07266435 183 184 174
3.8568326594177 2.00580830069103 -0.324356496334076 0.582818 -0.1215426 -0.8034617 189 191 181
3.89099163430364 2.04866284819164 -0.336254328489304 0.03778244 -0.6756221 -0.7362793 185 187 180
3.84424541013868 1.98443681688824 -0.359605193138123 -0.0203281 0.5854658 0.8104421 189 190 185
3.85532040017278 2.0232214400343 -0.369212418794632 0.7212774 -0.605629 -0.3361139 186 186 182
3.86610624807508 1.9789771506361 -0.346929013729095 -0.2651955 0.9509863 0.1590488 190 191 186
3.88778922575147 2.05775851698437 -0.359494000673294 0.5675377 -0.8143286 -0.1215315 189 191 186
3.85238484161527 2.01161272020855 -0.357354611158371 0.8241204 -0.5398674 -0.1713732 181 182 172
3.83087027686269 1.98716897459545 -0.339164435863495 0.5806733 -0.720394 -0.379277 189 190 184
3.84982738512189 1.9727835127882 -0.346951246261597 -0.2685277 0.9629197 0.026049 191 192 186
3.8669810058418 2.03152400942364 -0.351851224899292 0.9219306 -0.3396622 -0.1862081 185 186 179
3.8602351905647 1.98470372648754 -0.326558142900467 0.2288757 0.353578 -0.9069722 203 204 199
3.88325247781903 2.05084223242321 -0.361473262310028 0.7646315 -0.628617 0.1420545 177 179 171
3.82718814032705 1.98193854780712 -0.343370765447617 0.9987897 -0.01700137 -0.04615249 185 186 178
3.87417901175649 1.98946279974499 -0.324111849069595 0.1512551 0.4501653 -0.8800415 203 203 196
3.83966416733892 1.99684614630261 -0.34007939696312 0.5507017 -0.8113961 -0.1958673 157 161 158
3.92212615030439 2.01281363459149 -0.332607120275497 -0.4143395 -0.2554637 -0.8735337 198 199 195
3.92755243795545 2.00285059900799 -0.337544173002243 -0.7417758 0.4251677 -0.5186531 194 196 191
3.90042094009549 1.9865272709898 -0.345772564411163 -0.2037908 0.9216626 0.3301627 188 189 183
3.87511304634244 1.98499268980541 -0.328426212072372 0.0008418801 0.7023453 -0.711836 199 199 195
3.91863462942273 1.99531168432751 -0.347195863723755 -0.408721 0.9058156 0.1115584 191 191 186
3.90002063530118 2.0537777611784 -0.348974972963333 -0.2873493 -0.8800969 -0.3779681 191 190 188
3.84300003069074 1.99146432371655 -0.371391832828522 0.2996933 0.8977101 0.3229558 172 173 155
3.86876541989476 1.98055452795544 -0.351802498102188 -0.3184576 0.917359 -0.2388247 197 197 190
3.8467695178333 1.97501856775799 -0.339412242174149 -0.06673361 0.943272 -0.3252454 190 189 181
3.84777397530706 2.00009293051281 -0.331732392311096 0.9511496 -0.254981 -0.1740661 179 179 170
3.91732252257497 2.01041180582562 -0.331450700759888 -0.238022 -0.1453579 -0.9603211 193 194 188
3.84223649519117 2.00197584124127 -0.363763868808746 0.6179162 -0.7080433 -0.3418394 187 189 180
3.87435690181882 1.9865272709898 -0.327269792556763 0.1333141 0.6414859 -0.7554622 205 205 201
3.86896026747853 2.01924807520428 -0.328529983758926 0.376106 -0.5149069 -0.7703344 204 203 197
3.85220692175061 1.97656411619702 -0.337544173002243 -0.2242532 0.9039842 -0.3640373 185 185 180
3.85585412996442 2.01758164854565 -0.333692401647568 0.523816 -0.8241854 -0.2152562 191 193 187
3.84575763958127 2.00151628943005 -0.344482719898224 0.7716752 -0.6189069 -0.1465323 186 188 179
3.92039150612981 1.99591202230969 -0.343237340450287 -0.8400384 0.537466 -0.0739312 191 191 185
3.85874519365461 2.01841790171185 -0.351421266794205 0.8257487 -0.5620419 -0.04741211 178 179 172
3.85492009537847 1.99004096479931 -0.328604131937027 0.3367218 0.2920707 -0.895161 212 215 214
3.89806360619695 1.98425883741894 -0.332251310348511 -0.3374752 0.8678679 -0.3645761 188 188 180
3.93691501634748 2.00914425344982 -0.355268597602844 -0.9043293 0.2356035 -0.3559206 198 196 192
3.88667727130086 2.04830700846234 -0.342214345932007 0.6353016 -0.7368405 -0.2312095 183 183 178
3.85016093271405 1.99100834818401 -0.329749435186386 0.09807117 0.2774431 -0.9557235 214 213 210
3.85454944389493 1.97883254976788 -0.354949831962585 0.09820929 0.8805275 0.4637092 191 193 188
3.91792297976644 2.02048606367626 -0.334608644247055 -0.3418206 -0.3429695 -0.8749461 195 196 189
3.89265955107839 1.9829096266798 -0.333244651556015 -0.2226071 0.9441 -0.2431487 190 191 186
3.88661057370336 2.01962990255871 -0.327859103679657 -0.1835755 -0.2908277 -0.9389991 209 192 200
3.89237043874891 1.98368067236462 -0.358315348625183 -0.2427885 0.9468122 -0.2111883 192 192 185
3.9108065130058 2.04156858416119 -0.349508702754974 -0.8550392 -0.4968251 -0.1485693 179 182 175
3.84077612178952 1.97909945936718 -0.356269359588623 0.07623975 0.6242729 0.7774772 187 188 183
3.84711421149404 1.9996481606535 -0.330094128847122 0.9753735 -0.1462181 -0.1651268 182 183 176
3.89821187275083 2.05902618856945 -0.354327172040939 -0.07893327 -0.7492957 -0.6575146 193 193 193
3.85380814092786 2.01165718527355 -0.344126880168915 0.7279313 -0.6527573 0.2098191 181 182 175
3.85500905531079 2.00596398802319 -0.325935453176498 0.4665518 -0.06732054 -0.8819282 203 201 192
3.90233350413472 1.99911446066418 -0.327892482280731 -0.09477153 0.08169343 -0.9921414 197 195 191
3.8820070983711 1.98352498503246 -0.338700592517853 -0.02913767 0.9788533 0.2024776 187 187 180
3.86439386623532 1.98505944700756 -0.326246798038483 -0.1266552 0.4708545 -0.8730718 209 209 207
3.87847111242444 2.00093812437573 -0.32225489616394 -0.1522577 -0.1202646 -0.9809964 194 195 192
3.89659584181936 2.02780265303173 -0.330427706241608 -0.106229 -0.1621514 -0.9810312 195 189 189
3.92066950219304 2.02521187754192 -0.339868128299713 -0.64634 -0.5918836 -0.4815791 195 196 195
3.84463087337644 1.97351009340801 -0.351851224899292 -0.1706155 0.8553265 0.48919 190 191 188
3.88179955499799 2.04974503012219 -0.359456926584244 0.7904053 -0.6112416 0.04053408 176 178 171
3.86088011282117 2.01543778868237 -0.328426212072372 0.2397017 -0.6233356 -0.7443089 200 202 196
3.8609246076885 2.00594920607128 -0.321443200111389 0.2220028 -0.1505526 -0.9633528 197 196 189
3.85756651180417 2.01795083971539 -0.347129166126251 0.8014225 -0.5961473 0.04827455 176 178 169
3.87426797168882 2.04181320162335 -0.362451791763306 0.7158486 -0.6709637 -0.1933093 185 186 181
3.82853356617124 1.9738399455122 -0.345516830682755 0.8163098 0.5729795 0.07302682 189 190 184
3.88947937505872 2.04964131804028 -0.339590162038803 0.4652523 -0.838495 -0.283666 182 184 181
3.84953827279241 1.98912925215283 -0.330272018909454 0.07070815 0.1673517 -0.9833584 211 209 205
3.89055425542028 1.98370296450176 -0.361458450555801 -0.1560767 0.9871868 0.03320181 190 189 187
3.87570608275563 2.04382950754681 -0.362051486968994 0.713338 -0.6631629 -0.2266361 185 185 180
3.92033219950826 2.00340659113445 -0.331910312175751 -0.4160447 0.1991447 -0.8872701 197 199 194
3.83890805261762 1.97660870047131 -0.335320293903351 -0.01052451 0.8396568 -0.5430154 198 198 192
3.86176968234212 1.98256868811169 -0.366721659898758 0.3713634 0.7370351 0.5646844 177 177 162
3.85861173885495 2.0204194256834 -0.353600680828094 0.7538395 -0.646138 -0.119297 186 187 179
3.84431210773618 1.99041909666577 -0.365698665380478 0.207944 0.9015501 0.3794295 173 172 158
3.90513560789258 1.99093050451794 -0.351020961999893 -0.4214154 0.8611948 0.2841697 187 187 182
3.90555814521939 2.02746910543957 -0.33222907781601 -0.3818588 -0.178826 -0.9067553 216 187 203
3.84802601354749 1.99134201498547 -0.369668304920197 0.1275019 0.9192422 0.3724743 175 175 159
3.83432683962018 1.98843974562206 -0.337988942861557 0.5909275 -0.7233946 -0.3570783 188 189 182
3.89664033668668 2.06372601480999 -0.365135282278061 0.03099461 -0.9905262 0.1337804 190 190 187
3.87255556004674 1.98577112646618 -0.373593509197235 0.1625144 0.7847614 0.5981125 175 175 160
3.91189623492391 1.99222034903088 -0.345728099346161 -0.3298466 0.887318 0.3222858 190 191 184
3.84629136937291 1.99377710314312 -0.328233480453491 0.1391988 0.3465055 -0.9276624 203 203 196
3.91453153508336 2.00548595877209 -0.329404711723328 -0.3767575 -0.0559935 -0.924618 189 190 186
3.87972391265065 2.04541594477215 -0.349123239517212 0.7000813 -0.6142131 -0.3641817 181 183 174
3.880472636396 2.04268044920483 -0.341547191143036 0.4292469 -0.9002026 -0.07336478 174 177 169
3.88498712199361 2.00307304354229 -0.325090378522873 -0.3613583 -0.1852798 -0.9138334 194 193 190
3.86706254499585 2.03202814550915 -0.350042462348938 0.8980561 -0.4395502 -0.0170528 183 183 178
3.84625578539998 1.97281915636578 -0.345505714416504 -0.08490255 0.9685604 -0.2338424 188 189 183
3.86660293357999 2.033510632234 -0.353585869073868 0.8272269 -0.5019009 -0.2525692 184 185 178
3.90687022226484 1.9862603613905 -0.341814041137695 -0.5885276 0.7993912 0.1208681 189 189 187
3.83902666586072 1.99908477755108 -0.363370984792709 0.694995 -0.6908249 -0.1993562 188 189 181
3.8996648253742 2.05947095842877 -0.370635718107224 -0.4315368 -0.7372493 0.5198457 182 184 177
3.93482012169988 2.02132672758618 -0.373713582754135 -0.7363208 -0.6105123 -0.29173 190 190 186
3.85643232482106 1.97709793539562 -0.34134703874588 -0.2255234 0.9652265 -0.1322007 180 182 174
3.90300065892369 1.9863492915205 -0.335320293903351 -0.3908096 0.8735681 -0.2900805 186 188 182
3.91675913947255 1.99318904371777 -0.338982284069061 -0.5553001 0.7076421 -0.4369033 195 199 192
3.8760915459934 1.98025590868511 -0.36676612496376 -0.4305384 0.9015483 -0.04298183 188 189 184
3.8465582491699 1.99760217161694 -0.326780527830124 0.6454033 0.02230868 -0.7635162 175 179 169
3.86409363763959 1.99537832232037 -0.324412077665329 -0.05455815 0.1836338 -0.9814795 208 207 202
3.83744028824002 1.99782461615124 -0.36676612496376 0.9720275 -0.231553 0.03931565 185 186 179
3.93200022595556 1.99818045588055 -0.369123458862305 -0.4941579 0.8644484 0.09239528 191 192 187
3.85325661914975 2.0187915036253 -0.367842495441437 0.8203951 -0.4730977 -0.3211395 185 188 177
3.90860486643941 2.05342192144909 -0.358359813690186 -0.9627776 -0.2321893 -0.138374 187 187 183
3.90799701827199 2.05290300341168 -0.359723806381226 -0.9653295 -0.2141513 -0.1492586 186 187 182
3.90615860241086 1.98608250113049 -0.343081653118134 -0.5170628 0.8363957 0.1819019 181 183 180
3.9041570784393 2.00292176695385 -0.328248292207718 -0.0629839 0.0487095 -0.9968252 193 193 189
3.88707757609517 1.98577112646618 -0.346083909273148 0.03336097 0.9600755 0.2777446 189 190 185
3.88438669460447 2.04036778898754 -0.333429992198944 0.2202825 -0.3872424 -0.8952759 197 196 190
3.92132554071576 2.00285059900799 -0.332874000072479 -0.5102091 0.3036965 -0.8046459 197 198 193
3.86297056692273 1.97869915457287 -0.35764816403389 -0.006962856 0.9982525 0.05868038 193 194 189
3.90867159383924 2.0505308577589 -0.357803821563721 -0.9504179 -0.290926 -0.1098535 185 186 180
3.86036864536435 1.98385853262463 -0.367233157157898 0.4038138 0.720885 0.5632577 181 182 171
3.86323744671972 1.98808390589276 -0.372459292411804 0.2447174 0.6508336 0.7186995 186 187 180
3.85424551981122 2.01517099829235 -0.357877969741821 0.7642964 -0.5831891 -0.2752118 185 188 179
3.84862849729688 2.01123673410931 -0.333702892065048 0.8908619 -0.371314 -0.2617078 188 189 182
3.88262978809507 1.99431080313244 -0.324779033660889 -0.1734901 0.1951143 -0.9653143 202 202 193
3.85887861865194 1.97875840158978 -0.332192003726959 0.08311444 0.8949317 -0.438394 189 190 183
3.86265034096868 2.02719778509655 -0.367735743522644 0.6511192 -0.6102132 -0.4513132 188 188 180
3.91657198088796 1.9951281020216 -0.354946136474609 -0.2211283 0.9723229 -0.07543433 185 187 182
3.83730686324269 2.0001375147871 -0.36881211400032 0.8735921 -0.4815197 -0.07053844 188 188 180
3.83910820501477 1.98290223570385 -0.359449505805969 0.1045196 0.5293744 0.8419254 196 197 192
3.84046477692754 1.98310238810101 -0.360094457864761 0.08393656 0.5239601 0.8475969 189 191 187
3.84055373685987 1.98910696001568 -0.362451791763306 0.1780872 0.6056566 0.7755418 175 174 159
3.83837432282598 1.99012989492932 -0.362985521554947 0.6421355 0.4750711 0.601639 176 176 159
3.83641729372174 1.98826188536205 -0.361117452383041 0.541456 0.253489 0.8016039 167 167 144
3.84266642349393 1.99290985556164 -0.372236907482147 0.2996933 0.8977101 0.3229558 168 169 151
3.84477913993032 1.99199802370587 -0.371184259653091 0.2027799 0.9207726 0.3332539 177 177 163
3.84649152177007 1.99288756342449 -0.371858835220337 0.1524108 0.9126361 0.3792971 176 176 163
3.84851527827413 1.99141973944225 -0.371762484312057 0.1094357 0.9097081 0.4005682 174 173 159
3.85042781251104 1.99177557917156 -0.372637212276459 0.1400254 0.8995191 0.4138336 174 175 161
3.86243683713109 1.98511285276928 -0.36963939666748 0.2478902 0.6703072 0.699456 187 187 178
3.85600978749425 1.99182004423657 -0.373282134532928 0.234797 0.8111492 0.5356373 173 174 160
3.85990161317022 1.989729590135 -0.372236907482147 0.3173051 0.6819808 0.6589535 190 190 183
3.85567621009977 1.98007792921581 -0.359160423278809 0.332587 0.7312647 0.5955148 188 189 183
3.85714397447736 1.98083407373943 -0.359783113002777 0.3431512 0.78204 0.5202506 179 180 171
3.84226611869962 1.99135298224011 -0.367299854755402 0.319512 0.872995 0.3684994 174 175 161
3.84642482417257 1.99119741411724 -0.369256883859634 0.129108 0.9291663 0.3463829 179 180 166
3.84095404165418 1.99190909357586 -0.366232395172119 0.441625 0.8138325 0.3776824 171 170 154
3.84415645020635 1.99017435999432 -0.365654170513153 0.207944 0.9015501 0.3794295 175 174 159
3.85240707414777 1.98899573774853 -0.367299854755402 0.2731633 0.8489645 0.4523728 176 176 163
3.84197703617246 1.98452574701824 -0.360361307859421 0.09434518 0.5308156 0.8422196 187 187 182
3.85127288716466 1.98697204084911 -0.363430291414261 0.2177198 0.8056536 0.5509267 178 177 163
3.84996081011922 1.9855598876051 -0.361539989709854 0.1507223 0.7502434 0.6437528 181 182 171
3.85153976696164 1.98679406137982 -0.362807601690292 0.2182508 0.7790174 0.5877911 179 178 166
3.85109499710233 1.98528189154186 -0.360138922929764 0.188769 0.7251304 0.6622326 192 193 187
3.84664720910222 1.98857326002636 -0.363741636276245 0.2132004 0.8014237 0.5588074 179 179 167
3.84762570875318 1.98932928534069 -0.363786101341248 0.2215234 0.8196827 0.5282497 183 183 170
3.85617659109266 1.98702759237805 -0.367477774620056 0.4361637 0.7381914 0.5146208 178 179 168
3.85741085427434 1.98376960249462 -0.366632699966431 0.4729573 0.7441418 0.4717672 177 178 167
3.85471994298131 1.98863989801922 -0.367544502019882 0.4166568 0.7582633 0.5014318 174 174 158
3.85229588168294 1.99039680452862 -0.369568228721619 0.2341819 0.8398476 0.489709 170 170 153
3.85416395085485 1.98670513124981 -0.363118946552277 0.357258 0.7778261 0.5170622 183 187 179
3.85816696899564 1.983057923036 -0.362318336963654 0.5192286 0.6851789 0.5108146 184 185 178
3.8366396786514 1.99533385725536 -0.367588967084885 0.93633 0.2840238 0.206438 180 181 174
3.83712894337804 1.99613446684399 -0.368767648935318 0.947781 0.1132068 0.2981532 175 177 169
3.83712894337804 1.99840278120556 -0.366410315036774 0.8925366 -0.4481548 -0.05035601 185 185 178
3.83766267316968 1.99908477755108 -0.367062658071518 0.8981991 -0.433079 -0.07537214 186 186 179
3.83655071871907 1.99693507643261 -0.365921050310135 0.9428506 -0.3087092 0.1254249 183 184 176
3.83901924508245 2.00078231783428 -0.367844730615616 0.7312557 -0.6123304 -0.3005271 187 186 179
3.83886358755262 2.00151628943005 -0.370190918445587 0.8006127 -0.5741296 -0.1714478 184 186 178
3.84060934799344 2.00348443480053 -0.367889195680618 0.657133 -0.6821516 -0.3206953 189 189 182
3.83838320391805 1.99952370615521 -0.366001099348068 0.7881774 -0.5727136 -0.2253343 184 185 177
3.83930835741193 2.00049323530712 -0.366410315036774 0.7458693 -0.6147083 -0.2565399 187 188 181
3.83726236837537 1.99655694456616 -0.362273871898651 0.7081046 -0.689887 -0.1504784 186 188 180
3.8366841437164 1.99660152884045 -0.359938770532608 0.5923232 -0.7965866 -0.1208425 186 187 179
3.83902666586072 1.99906999559918 -0.361680835485458 0.6561006 -0.7160023 -0.2384797 189 189 183
3.83866343515546 1.99763185473004 -0.359812766313553 0.6288533 -0.7516108 -0.1990594 188 188 181
3.84053150432737 1.99919230433026 -0.359716385602951 0.6153614 -0.7524518 -0.2348334 188 189 181
3.8406649293247 2.00076014490643 -0.363519251346588 0.6346444 -0.7099615 -0.3052558 182 183 173
3.84251073616178 1.99339909048596 -0.372926294803619 0.3514286 0.8786557 0.323206 170 172 156
3.84223276990087 2.00525242777386 -0.36959046125412 0.6580029 -0.7144418 -0.2379183 184 185 176
3.84669167416723 2.00915379019299 -0.369593650102615 0.7656807 -0.5962242 -0.24135 181 183 176
3.84767017381818 2.01134592981854 -0.371510446071625 0.787229 -0.545817 -0.2869744 175 177 171
3.84277764576108 2.00273937674084 -0.363964021205902 0.6219917 -0.6988943 -0.3530908 184 186 177
3.8417546512428 2.00124937983074 -0.361317574977875 0.5902694 -0.7388648 -0.3250551 189 190 181
3.8449274064842 2.00247997732678 -0.359293848276138 0.664347 -0.7360559 -0.1298646 182 185 176
3.8465804817024 2.00327319593945 -0.359605193138123 0.6918544 -0.7086294 -0.1384985 184 185 176
3.84311861413152 2.00504488440075 -0.367418467998505 0.6394763 -0.7078328 -0.3000714 185 186 178
3.84594295042188 2.00781733484783 -0.369471877813339 0.7551581 -0.6169341 -0.22165 184 186 180
3.84442330020101 2.0063198277525 -0.368545234203339 0.6622006 -0.7070237 -0.2482091 189 193 186
3.84526837485463 2.0063198277525 -0.366588234901428 0.6755702 -0.6598804 -0.3288809 178 181 172
3.84683401005895 2.00881070585766 -0.367628991603851 0.7590935 -0.5823894 -0.2908601 183 185 177
3.84758124368818 2.0101450154356 -0.368678689002991 0.772819 -0.5714415 -0.2760531 186 187 179
3.85057607906491 2.01530439348736 -0.369657188653946 0.7904071 -0.5068422 -0.344046 189 189 183
3.8510282697025 2.01470393629589 -0.368078231811523 0.7884194 -0.5162271 -0.334521 190 190 183
3.85165542977483 2.01501972170391 -0.367406606674194 0.8047247 -0.4958862 -0.3263663 192 192 185
3.84980512278707 2.01210195513287 -0.367210924625397 0.755862 -0.5614601 -0.3368013 189 189 183
3.84464568513066 2.00525242777386 -0.364230901002884 0.6577632 -0.6371071 -0.4017987 181 182 179
3.84630916135938 2.00563485117474 -0.363385826349258 0.6793708 -0.6137629 -0.4021822 179 181 174
3.84787032621534 2.00738734694042 -0.363474786281586 0.7094287 -0.5949154 -0.3778711 186 186 179
3.84862328189046 2.00745088549175 -0.361829072237015 0.755921 -0.5645986 -0.3313788 186 187 179
3.84793705361516 2.00929994078198 -0.364764630794525 0.7290921 -0.5890149 -0.3485485 183 185 179
3.84892300384671 2.00921840162792 -0.364023327827454 0.7519957 -0.5633572 -0.3422444 185 186 179
3.8502276899162 2.00923318357983 -0.36187356710434 0.7877494 -0.5411838 -0.2942295 186 187 181
3.84785923975141 2.00529689283886 -0.359494000673294 0.7391117 -0.6667098 -0.09597868 186 186 180
3.84891558306844 2.0065867373518 -0.359605193138123 0.7718393 -0.611905 -0.1727322 181 183 174
3.84951601045758 2.00789887400189 -0.361161917448044 0.7826352 -0.5616958 -0.2682911 184 186 176
3.85056126731069 2.01070839853802 -0.363519251346588 0.7858388 -0.5352873 -0.3097174 186 187 180
3.85145080702932 2.01219100447216 -0.36289656162262 0.805334 -0.5231448 -0.278849 185 186 178
3.85158423202665 2.01165718527355 -0.360717117786407 0.8298765 -0.5128225 -0.2198136 188 188 182
3.85314095633657 2.01528210135021 -0.363485872745514 0.8180254 -0.5141993 -0.2577469 187 188 181
3.8535857559982 2.01557130308666 -0.363296866416931 0.8173871 -0.523091 -0.2413589 187 189 181
3.85318545120389 2.01492638083019 -0.362207144498825 0.8250252 -0.5161548 -0.2300383 188 190 182
3.85384148972661 2.01581592054882 -0.361562222242355 0.7833575 -0.5715252 -0.2443564 186 188 181
3.84184358137281 1.96362108679333 -0.351198881864548 -0.03596444 0.9750767 0.2189337 182 183 178
3.85856727378995 1.96984798403301 -0.343726605176926 -0.1171633 0.8779215 -0.4642485 192 192 188
3.82907844203145 1.97425133677044 -0.349775582551956 0.6760821 0.6613044 0.3249456 188 189 185
3.82614291327626 1.98021132441082 -0.352444261312485 0.91949 0.2717304 0.2840786 188 186 179
3.82691386955411 1.97743887396374 -0.349167734384537 0.9741524 0.2257901 -0.006777984 187 188 181
3.82761067765386 1.97903270216503 -0.349597662687302 0.9837849 0.1689841 -0.06009785 186 188 179
3.82704729455144 1.97660858126202 -0.347611010074615 0.9420782 0.324405 0.08514732 189 190 182
3.83494952934415 1.97736484499493 -0.353912025690079 0.1644409 0.6327593 0.7566867 188 189 181
3.82974559682042 1.98105639906445 -0.355557709932327 0.5805555 0.3547422 0.7328801 185 186 178
3.83483091610105 1.9796479413084 -0.355661481618881 0.1844387 0.5727729 0.7986949 190 191 185
3.83730686324269 1.97696454020062 -0.354134410619736 0.1708088 0.6610481 0.7306434 186 188 178
3.83695102351339 1.976252860742 -0.353511720895767 0.1542221 0.6727081 0.723657 183 185 177
3.83821866529615 1.97645301313915 -0.353845298290253 0.1393666 0.6838034 0.7162331 188 191 183
3.8323105038944 1.97368795366802 -0.350101739168167 0.2721452 0.8495237 0.4519364 183 184 178
3.83079824464948 1.97343582602062 -0.348026126623154 0.4218383 0.8625486 0.2793965 186 187 181
3.83757371323735 1.97242779226818 -0.347818553447723 -0.008668401 0.9935372 0.1131753 194 195 189
3.838107443029 1.97242779226818 -0.348663628101349 0.05877569 0.9839672 0.1683865 192 192 185
3.82558695095212 1.98728341551342 -0.35342276096344 0.9622332 -0.2715726 0.01885522 187 187 186
3.82627633827359 1.98176807852307 -0.352755606174469 0.93177 0.2500587 0.2632022 191 192 185
3.82662103193433 1.98216838331738 -0.351487994194031 0.9731548 0.2168173 0.0772003 189 190 182
3.8256833018604 1.98520774336376 -0.35110992193222 0.9654691 -0.1626675 -0.2034912 194 194 190
3.82596499341161 1.98534864874401 -0.34970885515213 0.9654691 -0.1626675 -0.2034912 191 191 186
3.82705471532972 1.98410315008679 -0.347840785980225 0.9800715 -0.05948006 -0.1895307 182 183 175
3.8266544105354 1.98683852644482 -0.349553197622299 0.929164 -0.2861052 -0.23409 193 193 189
3.82747725265653 1.9898631045393 -0.352711111307144 0.7940934 -0.5944707 -0.1265713 185 187 180
3.82841125744016 1.98843974562206 -0.349997997283936 0.803628 -0.5499575 -0.2274397 188 188 182
3.82841128724248 1.98760361166515 -0.347302615642548 0.87371 -0.439079 -0.2093813 185 187 181
3.83121339100034 1.98216838331738 -0.35662516951561 0.4544393 0.416683 0.787312 184 185 177
3.82952321189077 1.99182004423657 -0.353556215763092 0.6623999 -0.7455893 -0.07295871 189 190 184
3.83019778745801 1.9914123484663 -0.351806730031967 0.6843438 -0.7196154 -0.1175897 189 190 183
3.83085755127103 1.99253172369518 -0.352666646242142 0.6039593 -0.7922251 -0.08724958 191 191 185
3.83030158894689 1.99126417131939 -0.348941624164581 0.7213578 -0.6712005 -0.1706834 186 187 181
3.83205846565397 1.99239832850018 -0.349508732557297 0.6189074 -0.7796485 -0.0954038 183 185 179
3.83107993620069 1.99248725863018 -0.347952008247375 0.6996363 -0.6906775 -0.1829579 183 185 179
3.82825559991033 1.97460717649975 -0.346929013729095 0.8599521 0.4949731 0.1244349 188 189 182
3.82785532491834 1.97514099569836 -0.346261858940125 0.8734569 0.4686309 0.1321289 188 189 182
3.82714364545972 1.97563023062267 -0.345327794551849 0.9112467 0.4028591 0.08563924 187 187 181
3.82787755745084 1.97505194635906 -0.343259572982788 0.906577 0.4210681 -0.02863329 191 191 186
3.82896724956662 1.97352857084789 -0.34162500500679 0.6618847 0.7319794 -0.1616011 188 190 184
3.82796648758085 1.97543734999218 -0.341932654380798 0.9092828 0.4132228 -0.0495141 191 193 185
3.8273882927242 1.98056716414013 -0.345461219549179 0.9997336 0.02087323 -0.009850946 186 187 178
3.82894501703412 1.97322840185681 -0.339768052101135 0.6229786 0.7168919 -0.3129915 193 194 188
3.82694349306256 1.97938115091839 -0.341265469789505 0.9961925 0.0233194 -0.08400486 189 191 184
3.82692126053006 1.98107869120159 -0.341013431549072 0.9952806 -0.002271351 -0.09701178 188 190 183
3.82734379785688 1.97878808470287 -0.339501202106476 0.962213 0.1151259 -0.2467633 196 196 190
3.82765517252118 1.98174590559521 -0.339723587036133 0.9745344 -0.1049132 -0.1981815 189 191 184
3.82769963758619 1.97772056551495 -0.33892297744751 0.9198 0.2013925 -0.3367626 198 199 193
3.83439800756604 1.97176057787457 -0.345603555440903 0.008225926 0.9999419 -0.006965079 191 190 185
3.83223638551862 1.97331733198681 -0.347195863723755 0.2411823 0.9452432 0.2198782 188 188 182
3.8306796612087 1.97219056578198 -0.344126909971237 0.3864745 0.9159752 0.1078283 198 199 197
3.83245877044828 1.97207195253887 -0.343259572982788 0.1352968 0.9899491 0.04117736 194 195 190
3.83672863858373 1.97247225733318 -0.345550179481506 -0.1734683 0.9542503 -0.2435471 198 200 193
3.84006447213323 1.97220534773388 -0.346528708934784 -0.05166316 0.973175 -0.2241903 193 192 188
3.83583906906278 1.97189397306957 -0.343815565109253 -0.2002789 0.9606655 -0.1923806 192 193 187
3.83761820810468 1.97434026690045 -0.342614650726318 -0.2354195 0.9205583 -0.3116893 200 201 195
3.83472714441449 1.97171611280956 -0.34199196100235 -0.2226625 0.9614264 -0.1614954 192 191 186
3.83788505809934 1.97549671621838 -0.337588638067245 -0.1217859 0.9086347 -0.3994385 196 197 192
3.82701022046239 1.9832359025053 -0.345550179481506 0.9948891 -0.04545561 -0.09016304 182 183 175
3.82766998427541 1.98698682280102 -0.345653980970383 0.8943216 -0.4034971 -0.1933363 187 187 182
3.93247837441594 2.01990789862194 -0.362240523099899 -0.7342631 -0.6785434 0.02089351 183 184 175
3.82784197347791 1.98293346853771 -0.339865922927856 0.9190379 -0.2651961 -0.2916169 192 193 188
3.82791212814481 1.98516327829876 -0.341433525085449 0.86402 -0.4318089 -0.2588638 192 194 189
3.8281888725105 1.98434776754894 -0.337677597999573 0.8172871 -0.3825063 -0.4309649 189 191 187
3.83250323551328 1.9931544730238 -0.345754772424698 0.6167451 -0.7151907 -0.3288279 170 174 171
3.8302170695606 1.98951620550671 -0.343824446201324 0.6249529 -0.6820627 -0.3797688 189 191 184
3.83288869875104 1.99113804789105 -0.343341112136841 0.5696753 -0.6685383 -0.4780445 190 190 183
3.83623937385709 1.99346572847881 -0.341706037521362 0.8331191 -0.4801849 -0.2744724 180 183 172
3.82995021956594 1.98581559153118 -0.337090492248535 0.6970848 -0.5585828 -0.4495087 191 192 188
3.83033717291982 1.98514396639385 -0.33560049533844 0.6263251 -0.459397 -0.6298184 201 202 199
3.83170262592466 1.98861772509136 -0.340568661689758 0.4848918 -0.7587716 -0.4349088 193 195 186
3.83183608072431 1.98777265043774 -0.339234322309494 0.4975171 -0.7746677 -0.3903416 191 192 184
3.83421564715535 1.98917371721783 -0.339868128299713 0.5930536 -0.6907595 -0.4136891 190 190 183
3.83655071871907 1.98950726480999 -0.337203174829483 0.6830866 -0.64983 -0.333337 183 184 174
3.83710668104322 1.9914717146925 -0.33738848567009 0.8023571 -0.3808581 -0.4595325 187 188 178
3.84122089164884 1.9811231562666 -0.3588045835495 0.02522493 0.5639035 0.8254554 189 189 183
3.84086508172185 1.98025590868511 -0.358137428760529 0.04778124 0.5843708 0.8100789 193 195 188
3.84353376048238 1.97905499430218 -0.356580704450607 -0.06524713 0.5977965 0.7989882 193 194 188
3.84735885875852 1.97638625593701 -0.353734105825424 -0.2019747 0.7034276 0.6814659 192 191 187
3.85180664675863 1.97869915457287 -0.355646669864655 0.07704955 0.7424849 0.6654168 183 184 177
3.85060573237569 1.97883254976788 -0.355290830135345 -0.03470058 0.708379 0.7049788 184 184 178
3.84221423285634 1.97205705137768 -0.34974592924118 -0.02161117 0.9718575 0.2345761 196 196 192
3.84798154848249 1.97331733198681 -0.349486470222473 -0.2553181 0.9291052 0.2675371 190 192 189
3.85038334744603 1.97727579565563 -0.352622181177139 -0.1750489 0.7627789 0.6225161 185 187 180
3.85296306627423 1.97847671003857 -0.353600680828094 0.00823476 0.8350302 0.5501425 187 189 183
3.8561654748264 1.97794301004925 -0.354846060276031 0.07475895 0.9369069 0.3414918 188 190 185
3.86043534296186 1.97858793230572 -0.358115196228027 0.09094577 0.965403 0.2443891 191 192 187
3.86199206727178 1.97807640524426 -0.358315348625183 0.08719973 0.9858987 0.1428286 190 192 187
3.85910100358159 1.97683102579632 -0.350843042135239 -0.1893935 0.9765264 0.1025974 191 191 186
3.86236271875531 1.97849161119976 -0.35158434510231 -0.3763469 0.9250308 -0.05177807 192 193 186
3.86297056692273 1.97829884977856 -0.353244870901108 -0.3368045 0.9410182 -0.03236329 186 187 181
3.86230341213376 1.9778317877821 -0.351732611656189 -0.3527395 0.9352011 -0.03120531 188 189 180
3.86039975898893 1.97748047800579 -0.349241852760315 -0.3597896 0.9328225 -0.0198402 191 191 185
3.85923442857892 1.97669763060131 -0.348441243171692 -0.4333659 0.8999347 -0.04807888 195 194 189
3.86237010973127 1.97881025763073 -0.349553197622299 -0.3590713 0.9332888 0.006309621 193 194 187
3.86237010973127 1.97905487509289 -0.348152160644531 -0.3281102 0.9442458 0.02726862 190 190 185
3.84428987520368 1.9831025073103 -0.358715653419495 -0.01954342 0.6007956 0.7991638 191 192 188
3.8484707834068 1.98286528082409 -0.357247859239578 -0.04195897 0.6492033 0.7594567 190 191 186
3.85149530189664 1.98225731344738 -0.358004003763199 0.1644722 0.6856229 0.7091334 187 188 182
3.84431952851445 1.9726204344801 -0.346187710762024 -0.06100582 0.9806349 -0.1861006 186 189 182
3.84526837485463 1.97198302240887 -0.346039444208145 -0.06038271 0.9734384 -0.2208431 173 175 168
3.84308896082074 1.97358412237682 -0.342748075723648 0.009470826 0.9366001 -0.3502719 193 194 186
3.84391922372014 1.97373241873303 -0.343103885650635 -0.03432544 0.9492428 -0.3126657 196 196 190
3.84989408271939 1.9729614922575 -0.346172869205475 -0.2303464 0.9684072 -0.09554087 192 194 192
3.8476702036205 1.97309488745251 -0.344616144895554 -0.0735642 0.9597815 -0.2709388 200 203 197
3.85198453682096 1.97386211844006 -0.344026833772659 -0.2781438 0.9113845 -0.3033388 192 193 187
3.85041669624479 1.9747183987669 -0.341825157403946 -0.2068913 0.9202958 -0.3320417 188 188 180
3.84242180603177 1.97411794157543 -0.341903001070023 0.00463645 0.9406798 -0.3392638 193 195 186
3.84344480055005 1.97434026690045 -0.339901506900787 0.01013692 0.9529923 -0.3028249 195 195 185
3.84340030568273 1.97407347651043 -0.339723587036133 0.006071833 0.9522202 -0.3053519 189 189 179
3.84571317451627 1.97482950182476 -0.341235846281052 -0.04232292 0.9458304 -0.3218908 199 200 196
3.84432799237401 1.97509641142407 -0.337880939245224 0.01777472 0.9301791 -0.3666755 191 192 185
3.84875992553861 1.97549671621838 -0.339100897312164 -0.131754 0.9223433 -0.363213 188 188 183
3.85000530498655 1.97647518606701 -0.335965216159821 -0.1064416 0.855606 -0.5065655 192 193 189
3.85256276147992 1.97438473196545 -0.343993455171585 -0.3380843 0.9176087 -0.2090296 196 196 191
3.85781112926633 1.97681326361218 -0.345567971467972 -0.3949353 0.9123639 -0.1077881 196 197 191
3.85420844572217 1.97647518606701 -0.34212538599968 -0.3415289 0.9113738 -0.2296864 190 191 183
3.86210325973661 1.97849888296642 -0.345505714416504 -0.2577525 0.9601694 0.1078808 189 191 187
3.8591454686466 1.97736484499493 -0.343771070241928 -0.2682267 0.9613901 0.06151074 181 182 173
3.86203653233678 1.97769100161114 -0.343548685312271 -0.206535 0.969008 0.1355243 186 188 184
3.86250356453092 1.97858793230572 -0.344438254833221 -0.2522417 0.9540163 0.1619473 186 187 184
3.85469771044881 1.97700900526562 -0.339857012033463 -0.2115316 0.9370557 -0.2778146 186 187 179
3.85823366659314 1.97707576246777 -0.339857012033463 -0.01246833 0.9941708 -0.1070927 175 176 167
3.86417148130567 1.97737593145886 -0.339590162038803 -0.2370398 0.9709148 0.03371217 193 194 192
3.83170262592466 1.99337679834881 -0.356669664382935 0.5312451 -0.846127 -0.04298515 185 186 181
3.83272562044294 1.99462217779675 -0.358359813690186 0.5102853 -0.8590044 -0.04147664 187 188 184
3.83188054578931 1.99353987665692 -0.355528056621552 0.5320727 -0.846306 -0.02578273 188 189 183
3.83461592214734 1.99446649046459 -0.355602204799652 0.4774489 -0.8778853 -0.03687742 186 186 180
3.83337054269941 1.99404401274243 -0.353400528430939 0.4910499 -0.8707001 -0.02741185 190 189 184
3.83647290485532 1.99530047865429 -0.357848316431046 0.5212492 -0.8480913 -0.09508099 184 185 178
3.83675090091855 1.99577862711468 -0.355201900005341 0.4807583 -0.8746646 -0.06191335 178 180 173
3.83631352203519 1.99530417414227 -0.353645145893097 0.4694764 -0.8824375 -0.02993485 186 187 181
3.83283684271009 1.99345464201489 -0.351921647787094 0.5314766 -0.8467551 -0.0232062 189 190 183
3.83473826068074 1.9948223301939 -0.351910531520844 0.4987845 -0.8663733 0.02472438 185 187 180
3.83446026461751 1.99459261389294 -0.349286317825317 0.5525801 -0.83332 -0.01526283 181 183 176
3.83848551529081 1.99686831923046 -0.350932002067566 0.6324615 -0.7694965 0.08869936 183 185 174
3.83926386254461 1.99853629560986 -0.34804093837738 0.6641514 -0.738227 -0.1179997 186 188 180
3.84030911939771 2.00000400038281 -0.348886013031006 0.7032584 -0.7065246 -0.07906133 186 186 182
3.83499399440915 1.99364370794811 -0.344660639762878 0.697535 -0.6365033 -0.3291025 184 186 180
3.83677313345105 1.99644584150829 -0.346024632453918 0.621509 -0.7788326 -0.08453672 181 183 176
3.83904147761495 1.99835831614056 -0.345550179481506 0.5166964 -0.8322349 -0.201022 180 182 172
3.83566114919812 1.99353248568096 -0.343081653118134 0.7481794 -0.5746958 -0.3315906 183 185 176
3.83791471141011 1.99683124514141 -0.342288494110107 0.5806057 -0.7956291 -0.1728329 174 175 165
3.84043142812879 1.99786908121624 -0.343537569046021 0.4865601 -0.8534004 -0.1869948 184 185 179
3.84050924199254 1.99742431135693 -0.342236578464508 0.4939377 -0.8557292 -0.1541205 184 185 180
3.83646175878675 1.99457771273174 -0.339456707239151 0.8444325 -0.4345369 -0.3132275 170 173 161
3.83761820810468 1.99593431444683 -0.340902268886566 0.6874664 -0.7040669 -0.1779883 183 184 176
3.8373513283077 1.99426633806744 -0.336565673351288 0.7909637 -0.3782126 -0.4809695 190 189 180
3.83842868226201 1.9930061766676 -0.335809528827667 0.6903237 -0.3987832 -0.6036764 196 196 187
3.84117642658384 1.99795801134625 -0.357069969177246 0.5986013 -0.7776949 -0.1920082 184 185 181
3.84228838103444 1.99930352659741 -0.355713367462158 0.7009984 -0.7118099 0.04390792 183 184 179
3.85718846934468 2.01832885237255 -0.358982503414154 0.7137626 -0.6716873 -0.1984417 188 187 179
3.84090954678685 1.99795801134625 -0.353823065757751 0.7004104 -0.6989285 0.1446524 178 180 173
3.84135434644849 1.99862522573986 -0.354045450687408 0.6995998 -0.6988856 0.1487248 180 183 175
3.8438806893173 2.00122267694988 -0.357576996088028 0.6904892 -0.7152426 -0.1079479 184 186 178
3.84282211082608 2.00067121477642 -0.358315348625183 0.6431798 -0.7465866 -0.1700827 190 190 182
3.84639144557149 2.00337321253338 -0.357603669166565 0.7273465 -0.6859894 -0.01963792 177 179 170
3.84126538651616 1.99893660040417 -0.355735629796982 0.6892098 -0.7238331 0.03248871 184 185 181
3.84335584061773 2.00120491476574 -0.355646669864655 0.7228016 -0.6825312 0.1082081 182 183 176
3.84484586733014 2.00282830687084 -0.355646669864655 0.7171385 -0.6790026 0.1570597 178 180 172
3.84216976779134 2.00120491476574 -0.348233699798584 0.5853328 -0.693108 -0.420698 188 189 181
3.84405264871747 2.00388843508282 -0.349857121706009 0.6088861 -0.7564477 -0.2388399 185 186 181
3.84593555944593 2.00387365313091 -0.347181051969528 0.714359 -0.6485147 -0.2629065 186 187 178
3.8485004665199 2.00557858439007 -0.358285695314407 0.7522213 -0.6558727 -0.06319809 183 183 176
3.85072136538655 2.00920206995526 -0.357212275266647 0.8049285 -0.5878086 -0.08106179 183 184 175
3.84828177707822 2.00735396833935 -0.353789716959 0.7019791 -0.7092068 0.06520024 168 171 163
3.85158423202665 2.0101005503706 -0.357247859239578 0.814088 -0.569518 -0.113622 177 177 167
3.85277957337529 2.01156277151623 -0.355629980564117 0.7801713 -0.5943423 -0.1951664 183 184 174
3.84841147678525 2.00713533850231 -0.351688146591187 0.6550102 -0.755197 -0.02528151 176 178 169
3.85216245668561 2.0100115010313 -0.350932002067566 0.6680555 -0.7386582 -0.08992185 181 182 173
3.84753674882085 2.00618643255749 -0.350531697273254 0.66153 -0.7470595 -0.06542369 177 179 169
3.84651375430257 2.00494105310955 -0.348396778106689 0.6805083 -0.6933526 -0.2370033 185 185 176
3.85257164257199 2.01100785227337 -0.353458344936371 0.7188342 -0.6850706 -0.1181344 183 184 174
3.85246268528135 2.010756559091 -0.352055072784424 0.6899277 -0.7170972 -0.09884999 183 183 175
3.85302976387174 2.01294702978649 -0.358226358890533 0.8001583 -0.5494518 -0.240519 185 186 176
3.85443083065183 2.01359517069378 -0.35533532500267 0.7792469 -0.5770264 -0.2445708 185 185 175
3.85496456044347 2.0132880875639 -0.353526562452316 0.7777058 -0.599125 -0.1903231 183 183 174
3.85609874742658 2.01408118696728 -0.353689640760422 0.7972865 -0.5715732 -0.1940062 183 183 175
3.85654795783193 2.01501972170391 -0.354232281446457 0.7958559 -0.5723255 -0.1976278 184 184 176
3.85489783304364 2.01296932192364 -0.352010607719421 0.7797025 -0.6222981 -0.06934824 181 182 173
3.85388225930364 2.01198334188976 -0.351302653551102 0.7648104 -0.641987 -0.05401487 183 184 176
3.85620993989141 2.01450378389874 -0.351866036653519 0.8289002 -0.5584505 -0.03252035 177 179 170
3.85371918099553 2.01116795034924 -0.349568039178848 0.7617975 -0.6469502 -0.03346731 183 184 175
3.85447529571683 2.01303607912579 -0.34933078289032 0.7847504 -0.619604 -0.01605303 181 182 174
3.85456425564916 2.01319164724865 -0.347885280847549 0.8149974 -0.5793602 0.01099374 183 184 177
3.84281576293142 1.99886030645886 -0.34579798579216 0.5172713 -0.786285 -0.3379147 185 186 178
3.84392664449842 2.00143475027599 -0.347195863723755 0.6106828 -0.6652026 -0.4296184 189 190 181
3.84467533844144 2.00092322321453 -0.345683634281158 0.6402235 -0.6863006 -0.3451164 188 189 180
3.8456797959152 2.0016719767622 -0.345049798488617 0.7564673 -0.6048079 -0.248927 188 189 181
3.84497926252515 2.00076014490643 -0.344349265098572 0.7456074 -0.6435512 -0.1729492 183 185 175
3.84384510534436 1.99955923052349 -0.342970460653305 0.6237621 -0.7716899 -0.1241594 180 183 173
3.84227726476819 1.99775785894909 -0.337510824203491 0.4999999 -0.7453467 -0.4409744 177 179 168
3.84286657589109 1.99869198294201 -0.337521940469742 0.5923117 -0.7248511 -0.3517919 180 182 170
3.84404525774152 2.00087136717358 -0.339019358158112 0.7773095 -0.5860211 -0.2288432 186 188 180
