ply
format ascii 1.0
comment File exported by Rhinoceros Version 7.0
element vertex 498
property float x
property float y
property float z
property float nx
property float ny
property float nz
property uchar red
property uchar green
property uchar blue
end_header
4.11418155449064 2.1345940300993 -0.369212418794632 -0.6147834 0.7763658 -0.1389159 139 146 139
4.11618307846219 2.13543910475292 -0.369545996189117 -0.5075871 0.8605994 -0.04152092 142 148 139
4.11751738804013 2.13592833967724 -0.370146453380585 -0.4147046 0.9079939 -0.05972516 131 136 131
4.11644992845685 2.13579494448223 -0.367522269487381 -0.4487342 0.890599 0.0739666 127 135 127
4.12232104557187 2.13784093351879 -0.369701683521271 0.09366098 0.9934455 0.06552669 156 158 142
4.12267682569654 2.13837463350811 -0.368856579065323 0.2028807 0.9646801 0.1680228 160 162 147
4.1207287074867 2.13730723352947 -0.366018891334534 0.006503603 0.9379861 0.3466118 157 161 146
4.12361089008481 2.13757402391949 -0.367522269487381 0.3077581 0.9175147 0.2518963 159 162 145
4.12281028049619 2.13637310953655 -0.364987015724182 0.2099805 0.8833552 0.4190368 162 165 149
4.1162942411247 2.13540584536114 -0.361862450838089 -0.2493066 0.8960885 0.3672488 153 156 143
4.11849591749341 2.13512773008862 -0.364186406135559 -0.130981 0.9136022 0.3849352 148 155 142
4.11889622228772 2.1346384951643 -0.362095952033997 -0.09891815 0.8830184 0.4587959 157 162 143
4.11409262436063 2.13272602053204 -0.360094457864761 -0.4820635 0.8416584 0.2433639 165 166 152
4.11858484762342 2.13414926023998 -0.361206412315369 -0.1291474 0.8847384 0.4478379 156 160 142
4.11782876270444 2.13432723970928 -0.360494762659073 -0.1492953 0.9023985 0.4042128 156 161 146
4.12011495845945 2.13527018518963 -0.363608211278915 0.04308149 0.9010238 0.431625 153 155 137
4.12539002912671 2.1348609396986 -0.363830596208572 0.2834323 0.8891773 0.3592074 156 161 143
4.12467834966809 2.13406033010998 -0.362807601690292 0.2198353 0.883482 0.4136811 160 163 144
4.11978576200635 2.13410479517498 -0.361651182174683 0.03504556 0.8817192 0.4704711 157 159 141
4.12202081697614 2.13376016111889 -0.359727501869202 0.1077825 0.9510924 0.289493 164 168 150
4.12414464967878 2.13324493856945 -0.359397649765015 0.1179453 0.9878733 0.1009716 156 157 140
4.1180956126991 2.136617846208 -0.364030748605728 -0.2270473 0.9124905 0.3403095 153 156 145
4.12788078802259 2.13479418249645 -0.369523763656616 0.2782408 0.9330968 0.2278429 146 155 140
4.12570134418637 2.13566154928723 -0.369234651327133 0.389769 0.8944089 0.2193464 157 160 147
4.12699118869931 2.13428265543499 -0.368100464344025 0.3329689 0.9144218 0.2301401 151 158 146
4.12854794281156 2.13421601744213 -0.369234651327133 0.1675439 0.9462282 0.2767332 151 160 145
4.12634632604749 2.13521666021862 -0.365787625312805 0.3651454 0.8929062 0.2634147 153 160 147
4.1283255578819 2.13448280783215 -0.367121934890747 0.2401657 0.947845 0.2095476 154 160 144
4.13050494211347 2.13337082357922 -0.365854322910309 0.08036338 0.9771427 0.1968092 165 168 151
4.1367763640228 2.13205880613842 -0.368901073932648 0.5545329 0.8262514 0.09900397 150 154 131
4.13447830694349 2.13513512106457 -0.369449615478516 0.2703856 0.8657216 0.4212099 166 166 151
4.13237301128537 2.13432723970928 -0.368144959211349 0.08644384 0.9448373 0.3159272 161 164 144
4.1321684481445 2.13335759134808 -0.365698665380478 0.02794962 0.9866449 0.1604705 164 166 151
4.13570884483487 2.13548356981793 -0.369612723588943 0.3431708 0.8523363 0.39466 169 170 157
4.12783626335294 2.13305217714825 -0.361680835485458 0.08611225 0.9713156 0.2216543 161 164 144
4.13022325056226 2.13364512415447 -0.363430291414261 0.01277793 0.9769847 0.2129265 173 176 162
4.12979326265485 2.13352663012066 -0.362496256828308 -0.03687242 0.9871628 0.1554025 169 171 154
4.1283700229469 2.13183636160412 -0.361028492450714 -0.07464764 0.9947186 0.07044552 162 165 149
4.12667987363965 2.13237018080273 -0.359160423278809 0.006903732 0.9999761 0.0004433965 157 161 144
4.12974885719449 2.13232571573773 -0.360539227724075 -0.1254717 0.9912744 -0.04039697 165 168 152
4.13412246721418 2.13327450247326 -0.364052981138229 -0.04376275 0.9963288 -0.0735786 161 162 147
4.1316391588989 2.13319296331921 -0.359538495540619 -0.3134978 0.9163604 -0.2490035 153 157 140
4.13295123594434 2.1345495650343 -0.359004735946655 -0.3711717 0.8525795 -0.3678855 151 155 132
4.17244759815366 2.13206989260235 -0.320987284183502 0.2291473 0.515762 0.8255186 206 206 204
4.14859262722165 2.10749716253796 -0.301927298307419 0.1270266 -0.1305822 0.9832662 217 218 220
4.08818427341611 2.10810751410046 -0.357692658901215 -0.8705393 0.4821111 -0.09864139 161 163 146
4.08967427032621 2.11108750792065 -0.357759356498718 -0.7987679 0.5655791 -0.2051589 164 166 151
4.09081587808759 2.11320025415936 -0.357751935720444 -0.7474263 0.6280229 -0.2166591 156 157 141
4.08758381622464 2.10888583155193 -0.355958014726639 -0.8869073 0.4615232 -0.01979144 167 168 151
4.08736143129499 2.10839659662762 -0.355023980140686 -0.911203 0.4028661 0.08606943 169 170 153
4.08826581257016 2.10961229296246 -0.353659987449646 -0.9227365 0.3502714 0.1608332 167 168 154
4.08876249807508 2.11070937605419 -0.355624437332153 -0.8925442 0.4508623 -0.00938852 165 166 151
4.09010127800138 2.11285323591747 -0.355842351913452 -0.7888647 0.6045094 -0.1107291 163 164 153
4.08878473060758 2.1111987301878 -0.353600680828094 -0.8936145 0.4282145 0.1344822 161 162 147
4.09037110822828 2.11314088793316 -0.353141069412231 -0.7831531 0.6165637 0.08074921 166 169 155
4.08789513128431 2.10697335691967 -0.353244870901108 -0.8531026 0.3398182 0.3959036 166 167 154
4.08949635046155 2.11022014112988 -0.352800071239471 -0.9160969 0.3102597 0.2539792 170 171 159
4.09034142511518 2.11313349695721 -0.351510226726532 -0.8339145 0.4962866 0.2414255 169 172 161
4.08990780132444 2.10751814337292 -0.349586546421051 -0.7825195 0.1694805 0.5991158 174 175 162
4.09081957357557 2.10956413240948 -0.349453121423721 -0.8255481 0.09667114 0.5559902 173 174 162
4.09100857990415 2.11222166510143 -0.348174393177032 -0.8513249 -0.02703468 0.5239418 186 185 181
4.09103081243665 2.11335582228222 -0.349530935287476 -0.9028304 0.1251799 0.4113724 177 177 169
4.09083071964414 2.11262196989575 -0.347596168518066 -0.8975003 -0.04071229 0.4391306 184 183 179
4.09308425205381 2.1147717902235 -0.357929855585098 -0.6369124 0.7452039 -0.1975193 160 162 146
4.09614578502805 2.11709196062603 -0.357381284236908 -0.5919792 0.8005359 -0.09328929 162 162 145
4.09683523195417 2.11702532263317 -0.355935752391815 -0.6098028 0.7886299 -0.07876093 162 163 148
4.09223917740018 2.1145493456892 -0.355246365070343 -0.6593242 0.7462485 -0.09167726 161 161 147
4.09200940149457 2.10757369490185 -0.349308550357819 -0.8126512 0.1060345 0.5730225 167 167 152
4.09244302528531 2.10937506647625 -0.347807437181473 -0.8465109 0.03576706 0.5311685 172 173 161
4.09258440750272 2.11133212538281 -0.347342014312744 -0.8610638 -0.04961547 0.5060706 174 174 165
4.09251198785932 2.11517507525005 -0.352186292409897 -0.6938802 0.7200904 -5.053964E-05 165 168 155
4.09478924291761 2.11653608770886 -0.352933526039124 -0.5858421 0.8035126 -0.1056243 159 160 142
4.09154233949811 2.11413425894299 -0.35022035241127 -0.8512853 0.4989359 0.1624079 167 168 155
4.09234294908673 2.11351150961437 -0.347507238388062 -0.9425209 0.05695372 0.3292579 170 170 160
4.10266182439954 2.12325221987286 -0.357425779104233 -0.7390628 0.6510165 -0.1731001 156 158 143
4.09848091619642 2.11840409727612 -0.355023980140686 -0.6909528 0.7179237 -0.0846744 154 158 136
4.09977076070935 2.11916024179974 -0.353111416101456 -0.7342879 0.6670726 -0.1258389 157 160 145
4.09843639152677 2.12045008631268 -0.349375277757645 -0.6983206 0.5804649 -0.4188185 162 163 145
4.10478190200956 2.12519437761822 -0.35798916220665 -0.7171096 0.67997 -0.1529532 155 158 138
4.1062867404762 2.12752205820599 -0.355624437332153 -0.5668058 0.8109704 -0.1451148 158 161 143
4.10702065246732 2.12883419485607 -0.355557709932327 -0.4712545 0.8777024 -0.08693548 155 158 140
4.10616073625715 2.12775928469219 -0.353852719068527 -0.5458536 0.8311559 -0.1059421 153 155 135
4.10859963911206 2.12901205511608 -0.357425779104233 -0.5466188 0.8368725 -0.02919339 153 155 138
4.10991171615751 2.12907881231823 -0.353271543979645 -0.3973736 0.9164082 -0.04785555 163 164 148
4.10308430212171 2.12609881849804 -0.351643651723862 -0.6414693 0.6488279 -0.409316 152 152 135
4.10647205131681 2.1281151244215 -0.35124334692955 -0.3306697 0.9260252 -0.1820297 159 160 145
4.10746542232663 2.12916774244824 -0.349820077419281 -0.2085016 0.9430865 -0.2590655 149 153 129
4.11086056249768 2.12962741346874 -0.349820077419281 -0.4002601 0.9085357 -0.1198113 171 170 158
4.09352157133252 2.10928613634625 -0.346840053796768 -0.8462229 -0.0004035822 0.5328288 169 170 156
4.09398863332898 2.10973090620556 -0.344971984624863 -0.8655859 -0.04862516 0.498394 168 170 150
4.09354386346967 2.11184365244427 -0.344994217157364 -0.8985411 -0.1498687 0.4125085 166 168 149
4.09428516643674 2.10841137857952 -0.343281805515289 -0.8550467 -0.003460751 0.5185394 184 185 172
4.09490040558011 2.10931951494732 -0.341502696275711 -0.8511633 -0.1512858 0.5026267 192 193 189
4.09405092018277 2.1112431952528 -0.343664318323135 -0.9104785 -0.1355184 0.3907218 179 182 169
4.09180924909742 2.11515731306591 -0.347507238388062 -0.9711597 0.2032904 0.1245864 170 171 162
4.09236518161924 2.11534625978985 -0.345961600542068 -0.9154828 -0.1441296 0.3756565 171 172 161
4.09358832853467 2.11444563360729 -0.342837035655975 -0.9145167 -0.1745077 0.3649743 174 179 163
4.0927580954376 2.11755902262249 -0.34356352686882 -0.9460344 0.0261983 0.3230057 179 179 170
4.09323248880536 2.11642486544171 -0.342192113399506 -0.9266904 -0.1419051 0.3480055 180 181 170
4.09507391470105 2.11140329332867 -0.339599043130875 -0.8879787 -0.2355807 0.3949627 178 180 170
4.09633485096128 2.11117643805065 -0.337888866662979 -0.9141854 -0.2433545 0.3241044 173 175 163
4.09683523195417 2.10973090620556 -0.336965948343277 -0.9552512 -0.117907 0.2712805 171 176 161
4.0961903096977 2.11351150961437 -0.339312165975571 -0.8902851 -0.2166529 0.4005669 170 172 157
4.09369955080182 2.11771470995464 -0.341146886348724 -0.9321344 -0.004167821 0.3620885 187 187 179
4.09416655319364 2.11729211302319 -0.339444011449814 -0.9070268 -0.03771072 0.4193809 181 183 175
4.09660170095594 2.11526841612377 -0.337377369403839 -0.8694758 -0.1412854 0.4733395 172 173 162
4.09403309839399 2.1177368828825 -0.337855517864227 -0.8795474 -0.06718918 0.4710435 181 182 176
4.09563431757123 2.11635810823956 -0.338344782590866 -0.8800956 -0.1395421 0.4538279 173 176 164
4.09287664907605 2.11991638632336 -0.344794064760208 -0.8927618 0.4372961 0.1083908 180 180 165
4.09306345003278 2.11900014372387 -0.341698408126831 -0.9363894 0.2361291 0.2596496 185 186 175
4.09656832235486 2.12280745001354 -0.343971222639084 -0.8042939 0.5826752 -0.1166231 160 163 142
4.09518954771192 2.12245161028423 -0.342347770929337 -0.8194988 0.5711742 0.04670838 163 165 145
4.0996595384422 2.12805575819531 -0.343837797641754 -0.6573365 0.7437254 0.1215779 166 167 150
4.09325478094251 2.12058348150768 -0.341324806213379 -0.9071088 0.3635466 0.2121025 169 170 151
4.09421101825864 2.12009424658337 -0.340791046619415 -0.9262411 0.3083955 0.2167248 179 180 166
4.09592340009839 2.12289638014355 -0.341658383607864 -0.8002841 0.5969363 0.05667685 162 166 145
4.09495601671369 2.12119514437237 -0.339823663234711 -0.8685448 0.4164135 0.268756 167 169 152
4.09603462236554 2.1230076024107 -0.339556813240051 -0.7868714 0.578529 0.2147967 167 170 154
4.09818438308866 2.12344498129406 -0.337618291378021 -0.6871883 0.5535195 0.4705192 177 178 166
4.09701309221418 2.12256283255139 -0.336365520954132 -0.7027904 0.4903282 0.5154259 182 183 174
4.10019329803617 2.12678820581951 -0.339245438575745 -0.482309 0.7689417 0.4196506 175 176 162
4.10240385549695 2.12937230558911 -0.341324806213379 -0.4266725 0.8438199 0.3254513 172 174 156
4.09728000181348 2.1243640849165 -0.337988942861557 -0.7093883 0.5545936 0.4349645 178 179 165
4.09901461618573 2.1248089739851 -0.336432218551636 -0.554594 0.6438223 0.5271797 180 181 171
4.09987453239591 2.12586159201183 -0.337751746177673 -0.4875528 0.724298 0.4875292 177 176 164
4.10439643877179 2.12939018698254 -0.339768052101135 -0.4006046 0.8608174 0.3138621 182 182 173
4.1028842093292 2.12867850752392 -0.33981254696846 -0.3965476 0.8291536 0.3940232 180 180 166
4.10450319069059 2.12742418737927 -0.337793260812759 -0.4659843 0.832626 0.29932 171 173 162
4.10555288808973 2.12805575819531 -0.337410748004913 -0.473016 0.8370539 0.2749484 168 171 158
4.11249140518338 2.13090235682049 -0.351065456867218 -0.4705789 0.8753783 -0.1107625 162 164 147
4.11407039182813 2.13136941881695 -0.349530965089798 -0.490367 0.8601173 -0.1404935 158 160 144
4.11164633052976 2.12983495684185 -0.348619163036346 -0.3873701 0.8983671 -0.2070771 168 172 157
4.11204663532407 2.13054651709118 -0.347729593515396 -0.3857217 0.9081623 -0.1626654 168 169 156
4.10279521959455 2.13041312189617 -0.344304800033569 -0.3796814 0.922079 0.07491475 166 169 151
4.10332897918851 2.13045758696118 -0.346573173999786 -0.3367578 0.9099853 -0.2419109 162 162 145
4.13548645990522 2.13570601435223 -0.339145362377167 -0.3091528 0.7750333 0.5511333 194 175 180
4.10829565542371 2.13070971460858 -0.343682110309601 -0.1167655 0.9929497 -0.02041508 169 170 161
4.10611996668012 2.13088018389263 -0.34314838051796 -0.1682917 0.971274 0.1682402 171 172 160
4.10888872163923 2.13010174723187 -0.346706598997116 -0.1764605 0.9622548 -0.2071893 166 167 156
4.11038610952527 2.13091725798168 -0.34519436955452 -0.2189961 0.9645198 -0.1474527 172 173 162
4.11400369423063 2.13205880613842 -0.345906019210815 -0.4398942 0.8888972 -0.1278866 166 166 154
4.11235800998838 2.1312137314848 -0.344008296728134 -0.3373059 0.9364609 -0.09625868 159 160 142
4.10601989048154 2.13039082975903 -0.341524958610535 -0.258659 0.9353351 0.2413376 169 170 158
4.10816220062406 2.13056141825237 -0.341384083032608 -0.2169229 0.9630036 0.1599019 158 160 143
4.10595319288404 2.12979049177685 -0.33967912197113 -0.3574594 0.8937618 0.2709476 170 171 157
4.10860703008802 2.13044280500927 -0.336017102003098 -0.3670001 0.9150661 0.1672273 175 175 168
4.11060855405957 2.1313768097929 -0.341132044792175 -0.2235161 0.97355 0.0473383 164 167 154
4.11062333601148 2.13165850134411 -0.340435236692429 -0.2258835 0.9715557 0.07110764 152 157 136
4.11240247505338 2.13163179846325 -0.339136481285095 -0.2005372 0.9777139 0.0621307 168 168 158
4.11560485380323 2.13228125067272 -0.35738131403923 -0.3826048 0.9067758 0.1771193 153 156 133
4.11596069353254 2.13277048559704 -0.35764816403389 -0.3558407 0.9187978 0.1708452 151 155 130
4.11489323394925 2.13219220133343 -0.353600680828094 -0.4469522 0.8940492 -0.03016243 166 169 156
4.11498216407926 2.13245911093273 -0.354401290416718 -0.4519867 0.8918255 0.01884945 162 164 146
4.11596069353254 2.13270372839489 -0.35328933596611 -0.3581934 0.9311882 -0.06772013 169 169 161
4.11885175722272 2.13290388079205 -0.353734135627747 -0.05931915 0.9964719 -0.05937147 155 157 140
4.119874751741 2.13299281092205 -0.357959508895874 -0.06213823 0.9640517 0.258347 151 153 130
4.12223205583722 2.13249248953381 -0.353378295898438 -0.1780931 0.9587883 -0.2213773 161 164 147
4.12430474775464 2.13294834585705 -0.354330122470856 -0.2523161 0.9279713 -0.2742368 154 158 136
4.11422607916028 2.13188094587841 -0.351732611656189 -0.4964181 0.8627794 -0.09581598 159 159 143
4.1165833832565 2.13277048559704 -0.352577686309814 -0.2760629 0.9585238 -0.07086263 147 147 130
4.11891845482022 2.13325972052136 -0.351599186658859 -0.1891529 0.9685507 -0.1616498 149 152 140
4.11418161409528 2.13188094587841 -0.348263323307037 -0.4827665 0.865237 -0.135283 159 162 148
4.1164647700134 2.13383788557568 -0.347744435071945 -0.4078924 0.907517 -0.1001837 164 168 159
4.12043068426282 2.13317079039135 -0.351154386997223 -0.1542145 0.9691939 -0.1920444 148 155 139
4.12450042980344 2.13357109518566 -0.35226634144783 -0.3320495 0.8962038 -0.2942141 156 157 139
4.12456718700559 2.13543910475292 -0.349086165428162 -0.3407009 0.9345375 -0.1027746 170 171 155
4.12650189417035 2.13285941572704 -0.357470244169235 -0.04753799 0.996563 -0.06783985 152 157 138
4.12796971815259 2.13366002531567 -0.35764816403389 -0.2093084 0.9636794 -0.1658675 163 168 152
4.12605718391568 2.13443846197643 -0.355602204799652 -0.2048264 0.9410792 -0.2691023 152 154 135
4.12614611404569 2.13410479517498 -0.354178905487061 -0.2876052 0.9125327 -0.2908044 163 166 152
4.13014910238416 2.13423819036999 -0.356224864721298 -0.322808 0.8800949 -0.3481781 145 149 126
4.1367541314903 2.13857478590527 -0.357114434242249 -0.4701893 0.7654833 -0.4392692 152 155 138
4.13183931129605 2.13664001913586 -0.35444575548172 -0.4132144 0.8292952 -0.3761959 162 166 150
4.13608691709668 2.13944215269604 -0.353311568498611 -0.4931772 0.7872376 -0.3701799 152 156 141
4.12619057911069 2.13437170477429 -0.352577686309814 -0.3522572 0.8965355 -0.2685868 168 171 153
4.12708017843396 2.13637310953655 -0.350309312343597 -0.4597172 0.8740394 -0.157211 167 171 154
4.12859240787656 2.13672894926586 -0.349410861730576 -0.4613101 0.8827268 -0.08936629 167 169 153
4.13063839691312 2.13766307325878 -0.348441243171692 -0.5196927 0.8535138 0.03786455 152 157 132
4.13428554552228 2.13943094702282 -0.351176619529724 -0.4982994 0.8216845 -0.2766447 172 174 167
4.13661322611005 2.14067263098278 -0.351658463478088 -0.502374 0.8114887 -0.298507 152 155 138
4.13135001676709 2.13864154310742 -0.349820077419281 -0.4813625 0.859736 -0.1707167 169 173 161
4.13530854004056 2.14042062254467 -0.350042462348938 -0.5020363 0.8330922 -0.2322002 162 163 153
4.13428554552228 2.14050955267468 -0.348174393177032 -0.538133 0.8278596 -0.1583079 157 159 142
4.11631653326184 2.1346384951643 -0.345594674348831 -0.3538975 0.9352793 0.003049254 167 166 153
4.12010822313459 2.13468307943859 -0.3453389108181 -0.120759 0.9895095 0.0792979 174 176 167
4.12456712740094 2.13439387770214 -0.346395254135132 -0.2449915 0.9680007 0.05434939 182 180 171
4.12172797935636 2.13386756868878 -0.341636121273041 -0.09486549 0.9625701 0.2538886 181 182 173
4.12481180446775 2.13446063490429 -0.344482719898224 -0.1416066 0.978372 0.1507838 177 177 168
4.12334404009015 2.13414926023998 -0.343192875385284 -0.1352081 0.9714916 0.1947378 180 181 173
4.12356642501981 2.13428265543499 -0.343370765447617 -0.1379034 0.9749928 0.174275 181 182 176
4.11857006567151 2.13275558443585 -0.34015354514122 -0.1406698 0.9389838 0.3138813 185 184 177
4.11978576200635 2.13196987600842 -0.339123129844666 -0.08548335 0.9342811 0.3461378 187 180 177
4.11693922298581 2.13161403627911 -0.337410748004913 -0.03561416 0.9651807 0.2591484 180 180 175
4.11852560060651 2.1314806410841 -0.337736904621124 -0.02241145 0.9330763 0.3589797 183 182 177
4.12261012809903 2.13299293013134 -0.339590162038803 -0.1390687 0.9295338 0.3415068 184 179 177
4.12407050150068 2.13318557234326 -0.339338093996048 -0.185372 0.9221824 0.3394361 184 179 178
4.12454489486844 2.13277048559704 -0.336788058280945 -0.2096827 0.8789397 0.4283667 226 187 213
4.12497488277585 2.13280004950085 -0.336372911930084 -0.2007351 0.8687282 0.4527877 231 185 217
4.12957093732984 2.1379298636488 -0.345639139413834 -0.5307742 0.8358277 0.1402526 171 174 158
4.12943748253019 2.13597292395153 -0.343370765447617 -0.440829 0.8530762 0.2791608 170 171 155
4.13090524690778 2.13695139380016 -0.3428815305233 -0.4259038 0.8156832 0.3914931 174 174 159
4.13139454143674 2.13886398764172 -0.347551703453064 -0.5279055 0.8492838 -0.005725875 156 161 143
4.13179478662641 2.1378853985838 -0.343237340450287 -0.4615185 0.796881 0.3898479 172 172 158
4.13121662157209 2.13841909857311 -0.344794064760208 -0.5444888 0.8017588 0.2464037 173 173 161
4.12694672363431 2.13406033010998 -0.34007939696312 -0.25302 0.9250413 0.2833365 182 170 171
4.12792525308759 2.13479418249645 -0.340346276760101 -0.2436918 0.9281876 0.2812153 181 169 169
4.12963763492734 2.1348609396986 -0.339145362377167 -0.2404744 0.897414 0.3698921 213 175 198
4.12868139761121 2.13370449038067 -0.337232828140259 -0.1695873 0.9118196 0.373932 205 174 194
4.12593857067258 2.13280004950085 -0.33674356341362 -0.2286388 0.8615976 0.453182 225 180 210
4.13006017225415 2.13401586504498 -0.337099403142929 -0.1571603 0.9013566 0.4035553 212 179 200
4.13197270649106 2.13441616983929 -0.337944477796555 -0.1843051 0.8821572 0.4333939 213 175 201
4.13195047395856 2.13389343710461 -0.336999297142029 -0.165948 0.8903099 0.4240395 199 177 188
4.13642052429349 2.1347867915205 -0.336906671524048 -0.2213569 0.8501701 0.4777154 223 174 209
4.13017878549726 2.13567633123913 -0.340998619794846 -0.3174387 0.8505659 0.4192498 178 176 165
4.13330707567365 2.13570601435223 -0.341146886348724 -0.2940946 0.8223961 0.4870041 175 173 163
4.13646498935849 2.14228875132122 -0.346528708934784 -0.4917093 0.8675805 0.07433771 162 165 149
4.1349972249809 2.14135474653759 -0.345950484275818 -0.525925 0.839524 0.1363902 165 167 147
4.09799162166745 2.10968644114056 -0.335453718900681 -0.9724609 -0.05702024 0.2259832 166 166 147
4.09745792167814 2.11166567297497 -0.33507564663887 -0.9181437 -0.04346571 0.3938564 168 168 151
4.09865883606107 2.1113618084959 -0.333303958177567 -0.9440321 0.06877492 0.3226039 173 174 161
4.09790269153745 2.10740692110577 -0.33312976360321 -0.9559553 0.2165633 0.1981156 159 161 137
4.0978581668678 2.10710675211468 -0.332273542881012 -0.933609 0.2532154 0.2534879 158 161 140
4.09874776619107 2.10937506647625 -0.332251310348511 -0.927727 0.231907 0.2924754 176 176 167
4.09834740179212 2.10986442060986 -0.333096385002136 -0.9411828 0.196047 0.2752101 170 171 154
4.0995483757797 2.1112876603178 -0.332785040140152 -0.9392286 0.0814741 0.3334841 177 176 168
4.09732446687848 2.1179148623518 -0.334608644247055 -0.803455 0.06937268 0.59131 189 189 183
4.10025999563367 2.11480135412731 -0.331183850765228 -0.8547512 0.104173 0.5084764 184 184 175
4.09821400659711 2.1074180075697 -0.329871714115143 -0.9021965 0.3079158 0.302042 163 165 147
4.09941492098005 2.10906381102123 -0.33056116104126 -0.911815 0.2649409 0.3136872 177 178 172
4.10057768839032 2.10928613634625 -0.325725764036179 -0.7995933 0.198927 0.566638 190 188 184
4.10079375522763 2.10751587839642 -0.325579643249512 -0.7630549 0.06146037 0.6434049 183 182 173
4.10079375522763 2.1145790288023 -0.329226821660995 -0.859171 0.160427 0.4858893 184 184 178
4.1047078134361 2.11531300039807 -0.32493469119072 -0.5457014 0.2496303 0.7999342 179 180 174
4.09728000181348 2.11889333220043 -0.334208339452744 -0.7856633 0.1547499 0.5989872 187 186 181
4.09941492098005 2.12018317671337 -0.334030419588089 -0.7055258 0.305724 0.6393483 180 181 170
4.09985969083936 2.11964947672405 -0.333185344934464 -0.7063498 0.3106044 0.6360776 179 179 172
4.10088268535764 2.11929363699474 -0.33171758055687 -0.8238637 0.1853643 0.5356199 176 177 171
4.10150537508161 2.12525374384442 -0.335231333971024 -0.4376188 0.6624557 0.6079821 176 178 169
4.10693166273267 2.12898988218823 -0.332117885351181 -0.433444 0.8557723 0.2824539 175 177 176
4.10782126205594 2.12916774244824 -0.331695318222046 -0.3878556 0.8673103 0.3119951 179 180 179
4.1080881120506 2.12128884287396 -0.325052231550217 -0.0804276 0.3873875 0.918402 179 182 177
4.10407767313153 2.12299270124951 -0.325861304998398 -0.39822 0.4872424 0.7771844 196 196 196
4.10634235160978 2.12156207056561 -0.32480126619339 -0.1610514 0.4036817 0.9006129 183 186 185
4.10733196752698 2.12340778799572 -0.32531276345253 -0.1050313 0.4677695 0.8775877 192 194 192
4.10877308862836 2.12319881411114 -0.325410604476929 -0.06392489 0.4557502 0.8878093 175 179 173
4.11029717939527 2.12304455729046 -0.325549960136414 -0.0751875 0.4517169 0.8889874 179 182 175
4.11253587024839 2.1230520674757 -0.325268268585205 -0.0150334 0.4892673 0.8720043 185 185 179
4.10439643877179 2.12569851370373 -0.328070372343063 -0.4805466 0.6039236 0.6358863 189 191 185
4.10875532644422 2.12847823591747 -0.329604864120483 -0.2135057 0.8298528 0.5155189 196 195 193
4.10573080795438 2.12681037874737 -0.328648597002029 -0.215126 0.7329434 0.6453796 193 194 187
4.10546389835508 2.12525374384442 -0.326780527830124 -0.1781145 0.5819367 0.793489 190 191 182
4.10700950639875 2.12490899057903 -0.325979948043823 -0.0871184 0.5108014 0.8552732 197 196 192
4.10866633670957 2.12482375593701 -0.325727880001068 -0.1043451 0.5209498 0.8471856 203 201 198
4.11080125587613 2.12747759314099 -0.328826516866684 -0.1317425 0.7336643 0.6666188 194 194 190
4.11028233783872 2.12626189680615 -0.327032566070557 -0.07834847 0.5722343 0.816339 193 194 189
4.11026117818982 2.1251774498991 -0.326106995344162 -0.07388089 0.571941 0.8169609 196 195 189
4.11282501238019 2.12505359144726 -0.326387643814087 0.02032045 0.5220485 0.8526736 191 191 184
4.11220232265622 2.12681049795666 -0.327380985021591 -0.05691506 0.6205418 0.7821052 198 197 196
4.11424825208814 2.12567622156658 -0.326869487762451 0.05113486 0.5592983 0.8273879 192 191 185
4.10117182748944 2.10877460928478 -0.324489921331406 -0.7270191 0.07389089 0.6826297 189 187 183
4.102735912973 2.1109762856535 -0.324334233999252 -0.719956 0.1804253 0.6701567 182 180 172
4.10372928398282 2.10737354250469 -0.323177814483643 -0.6698098 -0.04774373 0.7409962 187 186 178
4.10472265499265 2.10731429548779 -0.322495818138123 -0.680774 -0.03883116 0.7314636 182 182 174
4.10573080795438 2.10735136957684 -0.321109592914581 -0.7095444 -0.08195046 0.6998792 178 181 173
4.10653135793836 2.11780817003765 -0.323248982429504 -0.2791902 0.3737985 0.8844928 189 189 181
4.10555288808973 2.11257750483074 -0.321398705244064 -0.666939 0.3692618 0.647177 183 183 177
4.10859218853147 2.11542410345593 -0.321606278419495 -0.2555441 0.4929778 0.8316671 181 181 171
4.11018965261609 2.11735887022534 -0.32313334941864 -0.1248979 0.4721121 0.8726458 186 185 173
4.10906658189923 2.11738104315319 -0.323155581951141 -0.1446937 0.4270975 0.8925533 182 181 170
4.11302516477735 2.11811489553967 -0.322999894618988 -0.2375073 0.4619149 0.8545319 179 179 168
4.11373678463132 2.11493486853161 -0.32095393538475 -0.3041132 0.5935253 0.7451462 172 172 158
4.10717628019483 2.10868567915478 -0.318351984024048 -0.6386431 0.005860842 0.7694808 174 178 177
4.10995618122251 2.10699552984753 -0.317484676837921 -0.4335702 -0.2234871 0.8729664 186 188 184
4.11186871545942 2.10755152197399 -0.31643944978714 -0.3565412 0.06215824 0.9322096 188 189 184
4.10899249332578 2.1111245820097 -0.317395716905594 -0.3694412 0.4076563 0.8350626 182 183 182
4.10519704836042 2.12031669111767 -0.323978424072266 -0.199095 0.3102596 0.9295699 196 196 193
4.10789910572202 2.11920470686474 -0.32428976893425 -0.1414199 0.3285692 0.9338323 196 196 188
4.1077767373863 2.11951608152905 -0.324645578861237 -0.1816337 0.3080773 0.9338617 201 200 193
4.11097917574079 2.12067253084698 -0.324022889137268 -0.08344189 0.3852827 0.9190183 183 183 172
4.11451069133908 2.12069911451855 -0.32346248626709 -0.1348051 0.536841 0.8328441 185 185 174
4.12034491317899 2.12925667257824 -0.332009851932526 0.1567085 0.8405284 0.5186083 188 182 184
4.12208751457364 2.12916774244824 -0.332028925418854 0.0991893 0.8442617 0.5266722 219 182 208
4.12258789556653 2.12827820272961 -0.330739051103592 0.07497316 0.8453656 0.5289008 230 183 215
4.12369982021482 2.12939018698254 -0.332874000072479 -0.02023614 0.8131295 0.5817309 222 177 209
4.12457457798154 2.12893051596203 -0.331999272108078 -0.06197997 0.83426 0.5478765 222 177 209
4.11777869480283 2.12698275538006 -0.328431755304337 0.1225 0.6494859 0.7504411 183 184 175
4.1180956126991 2.12540931196728 -0.327603369951248 0.03324126 0.6304659 0.7755049 185 185 176
4.12018606680066 2.12663251848736 -0.327959179878235 0.0207201 0.7355885 0.6771117 185 185 179
4.11460409181745 2.12959033937969 -0.329137861728668 0.004567301 0.7801997 0.6255139 183 186 182
4.11593101041944 2.12858957739391 -0.327729374170303 0.1050544 0.6263526 0.7724286 195 195 191
4.11859599369199 2.12365252466717 -0.325212687253952 -0.06951199 0.632924 0.7710871 187 187 181
4.12033436315686 2.12359315844097 -0.32497176527977 -0.2112126 0.6707756 0.7109496 184 185 177
4.12257305400998 2.12749988527813 -0.329515933990479 0.01178114 0.8412375 0.5405374 215 180 203
4.12376657741697 2.12736637087383 -0.329805016517639 -0.04483119 0.8583918 0.511032 227 176 212
4.12238774316938 2.12592083902874 -0.327025175094604 -0.2062089 0.816665 0.5390142 181 181 173
4.12383327501447 2.12636560888806 -0.326558142900467 -0.2858714 0.8182465 0.4987486 178 176 169
4.12574580925138 2.12903434725323 -0.332206815481186 -0.1652182 0.835752 0.5236616 204 177 193
4.1283255578819 2.12956804724255 -0.331272780895233 -0.3227803 0.8525729 0.4110137 180 173 170
4.12587926405103 2.12778896780529 -0.32749217748642 -0.3323274 0.8492849 0.4102118 216 170 202
4.12902233617933 2.12884897680798 -0.325735300779343 -0.2618132 0.8244188 0.5017843 223 178 211
4.13038638847501 2.13001281710186 -0.327699720859528 -0.2324869 0.8631438 0.4482551 209 179 198
4.1305160285774 2.12922329397717 -0.326124489307404 -0.1808758 0.8384283 0.5141226 228 180 215
4.13241753595502 2.12892312498608 -0.32559072971344 -0.103205 0.82862 0.550216 232 181 218
4.1147597791496 2.11484593840161 -0.320509135723114 -0.3528378 0.5608431 0.748973 174 175 159
4.11409262436063 2.10941953154125 -0.317039877176285 -0.3862916 0.2515211 0.887421 183 183 171
4.11489323394925 2.10861892195263 -0.316372722387314 -0.498999 0.2118916 0.8402988 183 183 172
4.11782876270444 2.11489040346661 -0.318107336759567 -0.4929029 0.6528798 0.5751475 171 172 158
4.1180511476341 2.11702532263317 -0.318730026483536 -0.4003299 0.6716545 0.6233909 178 179 167
4.12005267160566 2.11696595640698 -0.31822595000267 -0.4147358 0.7301519 0.5430216 181 180 169
4.11738399284513 2.11333364935436 -0.316328227519989 -0.5636507 0.5776007 0.5904873 177 177 164
4.12200967090757 2.11751455755749 -0.319085866212845 -0.382461 0.7139316 0.5865366 186 186 177
4.12376651781232 2.11758131475964 -0.31801837682724 -0.364031 0.7192245 0.5917749 179 177 168
4.12125358598859 2.11618024797955 -0.316239267587662 -0.376556 0.7624635 0.5261701 178 180 166
4.12490073459775 2.11738116236248 -0.314193278551102 -0.2446491 0.8566815 0.4541406 196 196 192
4.12683109062345 2.11706978769817 -0.313908636569977 -0.2625977 0.8289923 0.4937755 192 192 185
4.1286051036659 2.11681563349285 -0.313545197248459 -0.2542144 0.8255629 0.5038065 192 189 185
4.1283477904144 2.1180483767561 -0.314949423074722 -0.2755729 0.7309873 0.6242733 207 192 201
4.11616531627805 2.12159759493389 -0.324254184961319 -0.1041808 0.5825207 0.8061117 187 187 179
4.1147153140846 2.11982745619335 -0.323088854551315 -0.205775 0.5511366 0.808644 177 178 164
4.11683545129926 2.11979777308026 -0.323074042797089 -0.1817106 0.6473279 0.740235 175 176 164
4.11965236681134 2.12040562124767 -0.322733044624329 -0.2304073 0.6851053 0.691045 183 183 173
4.11751738804013 2.12222916574993 -0.324734538793564 -0.07401563 0.6406427 0.7642635 188 187 181
4.1197635890785 2.1195828387312 -0.321554362773895 -0.2526465 0.6715148 0.6965899 173 175 163
4.11862937229306 2.11902684660473 -0.319886445999146 -0.3054245 0.6450163 0.7004784 174 176 166
4.12209866064222 2.12316328974285 -0.323818296194077 -0.3461511 0.7133725 0.6093267 182 182 175
4.12223205583722 2.11891550512829 -0.319530636072159 -0.3913336 0.6678494 0.6331155 188 187 181
4.12470803278119 2.1214434573225 -0.319219291210175 -0.3818389 0.6219184 0.6836787 181 181 172
4.12525657432706 2.12276298494854 -0.32019779086113 -0.3805799 0.6385341 0.6689044 181 183 179
4.1249897243324 2.12529820890942 -0.324200809001923 -0.3808594 0.7486558 0.5426422 177 179 172
4.12631515281827 2.12302083464184 -0.31993094086647 -0.3579831 0.6384048 0.6813864 178 181 174
4.1283700229469 2.12268883677044 -0.318922758102417 -0.2979526 0.6396406 0.7085789 182 185 178
4.12667987363965 2.12552053423443 -0.322866469621658 -0.3571818 0.741933 0.5674121 180 180 171
4.12743595855863 2.12676591368237 -0.323978424072266 -0.3373445 0.7664616 0.5465668 187 185 182
4.13035485761792 2.12741643877545 -0.323439121246338 -0.2238336 0.8120682 0.5389284 200 185 192
4.12799195068509 2.12407512159863 -0.321865737438202 -0.3402588 0.7135252 0.6124588 184 184 174
4.13281778114469 2.12712175341168 -0.323533654212952 -0.1441549 0.8466257 0.512293 195 181 186
4.1349527599159 2.1278778979353 -0.324378728866577 -0.1472564 0.8714742 0.4678122 197 176 189
4.13570884483487 2.12832266779461 -0.324467688798904 -0.1884967 0.8781444 0.4396946 215 177 203
4.13486377018125 2.12592083902874 -0.319441676139832 -0.3604458 0.7940464 0.489458 207 186 198
4.13014910238416 2.11982745619335 -0.316639572381973 -0.2941076 0.6478806 0.7026745 228 185 213
4.12796971815259 2.12171763868847 -0.318262994289398 -0.3123768 0.6315088 0.7096601 194 193 189
4.12734702842862 2.11884886713543 -0.315972417593002 -0.2746195 0.6910446 0.6686116 212 190 204
4.1298377873245 2.11849302740612 -0.315883457660675 -0.2705609 0.68924 0.6721198 231 184 215
4.13263992088468 2.12383038492718 -0.318151831626892 -0.3833854 0.6606171 0.6454461 196 195 192
4.13241747635038 2.12200684042492 -0.317262262105942 -0.4321382 0.6576229 0.6170807 197 174 188
4.1349082948509 2.12336344214001 -0.31519404053688 -0.4758052 0.6496474 0.5929314 213 171 201
4.13459692018659 2.12454194517651 -0.317484647035599 -0.4386331 0.7264789 0.528989 198 177 188
4.11081240194471 2.13092464895764 -0.335231333971024 -0.292244 0.9377027 0.1879021 165 168 159
4.10853288190992 2.12983495684185 -0.334297299385071 -0.3763435 0.9011168 0.2152997 180 180 175
4.11346993463666 2.13156957121411 -0.336031913757324 -0.09890347 0.9764384 0.191797 168 172 167
4.11266932504804 2.13102097006359 -0.333837687969208 -0.1375782 0.9525743 0.2714303 171 174 170
4.11262485998304 2.13041312189617 -0.332073390483856 -0.1406555 0.9135936 0.3815267 165 169 165
4.11231348531873 2.13036865683117 -0.330427706241608 -0.1498093 0.8653255 0.4782981 166 170 167
4.116427755529 2.13176972361126 -0.335564911365509 0.03879287 0.9661013 0.2552318 172 175 168
4.11856267469556 2.13119143934765 -0.335164606571198 0.0949719 0.9481181 0.3034015 179 180 173
4.11875168102414 2.13076896162548 -0.33340772986412 0.1531838 0.8940722 0.4209152 191 192 189
4.1160763265434 2.1306888529829 -0.331468492746353 0.1238718 0.871783 0.4739727 182 186 184
4.12230620401532 2.13057620020428 -0.333926647901535 0.01770398 0.8094292 0.5869506 216 184 206
4.12756941335828 2.13174743147411 -0.33456414937973 -0.2285931 0.8413163 0.4898286 189 176 181
4.13397423046262 2.13330418558636 -0.335097879171371 -0.1398025 0.9184403 0.3700305 180 178 175
4.13068286197812 2.13036865683117 -0.327714562416077 -0.1743615 0.8602293 0.4791698 208 180 196
4.1324708821121 2.13059098215618 -0.327598929405212 -0.1284914 0.8598493 0.4941145 204 182 194
4.13437453525693 2.13237018080273 -0.33056116104126 -0.1188436 0.9109668 0.3949882 183 182 177
4.13410768526227 2.13170296640911 -0.329582631587982 -0.08851677 0.89863 0.4296846 191 188 187
4.13579783456952 2.13165850134411 -0.329493671655655 -0.1320537 0.8979961 0.4197199 196 182 189
4.1349527599159 2.12983495684185 -0.326647102832794 -0.1110214 0.8418528 0.5281649 237 181 223
4.14794025438459 2.12236268015423 -0.377930074930191 0.497068 0.8185108 -0.2880338 128 131 104
4.14280304926069 2.12747759314099 -0.380042791366577 0.5821227 0.8108953 -0.05985089 139 142 124
4.14024559276731 2.12952358217755 -0.37623992562294 0.6640093 0.7473821 0.0226199 145 148 124
4.14358142631681 2.12529820890942 -0.381132483482361 0.5821227 0.8108953 -0.05985089 134 138 123
4.13904467838437 2.12947911711254 -0.373660206794739 0.6729406 0.7342204 0.0898411 149 154 132
4.14064589756162 2.12932342978039 -0.373593479394913 0.5816147 0.812797 0.03294523 148 151 128
4.14816263931424 2.12636560888806 -0.375572741031647 0.185315 0.751965 -0.6326191 135 138 115
4.14273635166318 2.1281892725996 -0.375127971172333 0.490509 0.8640429 -0.113273 148 150 128
4.14435980337293 2.12858957739391 -0.373526751995087 0.2586136 0.8783326 -0.4020585 140 142 119
4.14656147974164 2.12832266779461 -0.375528275966644 0.3646207 0.81429 -0.4516453 135 138 116
4.1483850242439 2.12890095205822 -0.374082744121552 0.1129812 0.6971177 -0.7079988 135 139 118
4.14484903829725 2.12923449965038 -0.371191680431366 0.0672283 0.8665289 -0.4945787 144 145 123
4.16608724611432 2.12876743765392 -0.374238401651382 0.4719805 0.8576251 -0.2042391 147 151 145
4.16871145980985 2.12881190271893 -0.37099152803421 0.405065 0.912203 -0.06170848 149 152 144
4.17133561390073 2.12534267397442 -0.37099152803421 0.6009787 0.7801424 -0.1737881 143 148 129
4.16519770639569 2.12961251230755 -0.366187930107117 0.5864492 0.7555114 -0.2920271 150 153 132
4.16697678583295 2.1281448075346 -0.370013028383255 0.405065 0.912203 -0.06170848 147 152 130
4.16920069473417 2.12805575819531 -0.369879573583603 0.405065 0.912203 -0.06170848 146 148 130
4.16982338445813 2.12827820272961 -0.369568228721619 0.4052379 0.9124388 -0.05690125 139 144 130
4.16946754472882 2.12836713285961 -0.36778911948204 0.4060212 0.9120881 -0.05693909 157 159 139
4.16733262556226 2.12907881231823 -0.36494255065918 0.4792106 0.8720403 -0.09951351 145 146 123
4.17093530910642 2.12756652327099 -0.363252371549606 0.4611436 0.8797194 -0.1159323 150 150 127
4.1737374426666 2.12245161028423 -0.368144959211349 0.6794459 0.6944593 -0.2368112 152 157 141
4.17718449848325 2.12113947363415 -0.364853590726852 0.6789488 0.5118246 -0.5263687 166 166 151
4.17391536253125 2.12578744383373 -0.367655694484711 0.6617981 0.7079446 -0.246653 157 162 144
4.17239198702008 2.12687713594952 -0.367800235748291 0.5989721 0.78612 -0.152472 158 160 136
4.17409328239591 2.12703282328167 -0.367121964693069 0.6468845 0.7369178 -0.1961955 164 167 148
4.17916373031766 2.1213396260313 -0.36187356710434 0.6523625 0.4868579 -0.5808551 169 171 161
4.17240307348401 2.12592083902874 -0.364408791065216 0.6242961 0.7556129 -0.1982512 158 158 138
4.17229191082151 2.12672156782665 -0.363875091075897 0.5872166 0.7889547 -0.1809065 157 157 136
4.17436013239057 2.12536496611157 -0.363430291414261 0.5913657 0.6993231 -0.4015394 165 169 156
4.17462698238523 2.12641007395306 -0.362006992101669 0.5911822 0.6808897 -0.4323111 161 162 149
4.18063149469526 2.12623221369305 -0.35982757806778 0.5655977 0.3545394 -0.7445811 165 171 160
4.13962290304334 2.13179189653912 -0.38046532869339 0.7802474 0.6146531 0.1158254 158 162 141
4.13868889825971 2.13368219824352 -0.381688475608826 0.8262141 0.5471326 0.1342245 137 143 124
4.13851097839505 2.13119894953289 -0.375320702791214 0.7552544 0.6474539 0.1019515 153 157 141
4.13784382360608 2.1345495650343 -0.37623992562294 0.8437057 0.5252367 0.1108471 150 153 136
4.13744351881177 2.13526124449291 -0.376640230417252 0.8033951 0.5860285 0.1054842 149 153 138
4.1401566626373 2.13036865683117 -0.374772161245346 0.6737866 0.7375344 0.04532838 154 156 137
4.13717660921247 2.13312632532635 -0.371881097555161 0.7464172 0.6386936 0.1869005 153 158 145
4.15172091739804 2.1345940300993 -0.370724648237228 -0.1376761 0.6622041 -0.7365671 144 150 133
4.1383330585304 2.13150281401196 -0.36792254447937 0.3290851 0.9131124 -0.240684 148 151 130
4.13859990852506 2.13241464586773 -0.366632699966431 0.03052944 0.9494918 -0.3123032 145 150 129
4.14064589756162 2.13512773008862 -0.364920318126678 -0.2960061 0.8707628 -0.3926226 150 153 130
4.13966736810834 2.13846368284741 -0.359115928411484 -0.4283156 0.7547414 -0.4969015 162 164 150
4.14122412222059 2.1381967732481 -0.360316842794418 -0.4172538 0.7401209 -0.5273711 147 148 127
4.14693949239881 2.14062089415112 -0.36225163936615 -0.3575806 0.7233267 -0.5907068 156 159 141
4.14816263931424 2.14064306707897 -0.362318336963654 -0.3166365 0.7184729 -0.6193045 158 161 144
4.14936355369718 2.13348216505566 -0.369790613651276 -0.2060647 0.678081 -0.7055094 141 144 123
4.15559045093686 2.1346384951643 -0.370013028383255 0.06388991 0.586436 -0.8074719 146 147 129
4.15745852010877 2.13370449038067 -0.370146453380585 0.2348981 0.4721925 -0.8496217 149 151 135
4.15750304477842 2.13446063490429 -0.370013028383255 0.182743 0.4687263 -0.8642341 146 148 128
4.15203223245771 2.13557261915722 -0.368500769138336 -0.1289577 0.6486071 -0.7501191 143 146 125
4.15276608484418 2.13739616365948 -0.367633461952209 -0.1826904 0.6551476 -0.7330797 153 157 139
4.15112046020658 2.13670677633801 -0.367477774620056 -0.1956504 0.6643454 -0.7213641 142 145 126
4.15100923793943 2.13908631296673 -0.365075975656509 -0.2373375 0.6857408 -0.6880628 154 157 141
4.15438959615857 2.14095444174328 -0.365031480789185 -0.2141422 0.688193 -0.6932052 144 145 124
4.15794781463773 2.13921970816174 -0.366454780101776 0.08504424 0.5495607 -0.8311141 152 155 139
4.14927462356717 2.14059860201397 -0.363296866416931 -0.2956639 0.7158749 -0.6325393 157 159 146
4.14716193693311 2.14262229891338 -0.359627425670624 -0.3801112 0.7579191 -0.5301643 162 165 149
4.15149853246839 2.14300031157055 -0.361384302377701 -0.296557 0.7280506 -0.6180584 161 163 152
4.15594629066617 2.14202184172192 -0.363875061273575 -0.1074361 0.6815335 -0.7238575 150 153 137
4.15768090503843 2.14219982119122 -0.364542245864868 0.01650432 0.674765 -0.7378481 155 158 145
4.15732512491376 2.14384550543347 -0.363074481487274 -0.008376416 0.7168033 -0.6972251 152 157 141
4.15968242900998 2.13414926023998 -0.36792254447937 0.2926483 0.4283692 -0.8549016 154 156 139
4.16510871666105 2.13036865683117 -0.367210924625397 0.5418114 0.7777225 -0.3187289 148 152 134
4.1670213105026 2.1379743287138 -0.362184911966324 0.553223 0.6077216 -0.5697532 156 157 135
4.16635409610898 2.13837463350811 -0.362718641757965 0.5521751 0.5845463 -0.5944816 156 156 133
4.16662100570829 2.1391196915678 -0.361545532941818 0.553223 0.6077216 -0.5697532 156 158 135
4.17338160293729 2.13619524927654 -0.359249383211136 0.406431 0.4551925 -0.7922207 159 158 134
4.17133561390073 2.13846368284741 -0.359471768140793 0.3832573 0.6812137 -0.6237481 158 160 137
4.16083881872327 2.14211077185192 -0.364987015724182 0.2700914 0.5858832 -0.7640625 155 158 144
4.1619952680412 2.14271134825268 -0.363741636276245 0.3586931 0.6390542 -0.6804036 159 161 149
4.16317394989164 2.14128798933544 -0.3639195561409 0.4499304 0.5461138 -0.7066274 156 158 146
4.16395232694776 2.14099890680828 -0.363341331481934 0.565857 0.540508 -0.622621 153 155 139
4.16430810707242 2.1415770718626 -0.361695647239685 0.6410061 0.6172469 -0.4561989 160 161 142
4.1634630324188 2.14277798624554 -0.361339837312698 0.6433296 0.6261708 -0.4404964 166 167 153
4.16286263483197 2.14362306089916 -0.361050724983215 0.5697587 0.6757354 -0.4677143 164 166 151
4.16573140638501 2.14197737665692 -0.359516233205795 0.5789379 0.6822186 -0.446552 163 165 142
4.18330017345578 2.1177368828825 -0.360494762659073 0.5906906 0.4075021 -0.6964386 169 172 154
4.18699184673459 2.12140185328045 -0.328870981931686 0.6947123 0.07821804 0.7150221 190 191 186
4.13188377636106 2.05760282965222 -0.30440816283226 0.4404697 -0.4604545 0.7706933 213 215 214
4.13957843797834 2.14095444174328 -0.354089945554733 -0.4836116 0.7707503 -0.4148057 160 166 154
4.1384072067085 2.14108783693829 -0.353482067584991 -0.4964419 0.7797281 -0.3815358 152 156 142
4.14209887998731 2.14351922960797 -0.353571027517319 -0.4597794 0.7764601 -0.4309439 163 167 153
4.14818487184674 2.14393443556347 -0.358226358890533 -0.3832181 0.7650357 -0.517556 162 166 152
4.14794025438459 2.14446813555279 -0.357025474309921 -0.3855267 0.7784497 -0.4953637 165 168 157
4.14491579549939 2.14502412767925 -0.353578448295593 -0.4367496 0.7824667 -0.443842 146 149 130
4.14589432495267 2.14424581022778 -0.355290830135345 -0.4093583 0.7907295 -0.4551623 167 170 159
4.14835540073545 2.14539474936047 -0.35567632317543 -0.3917471 0.7863925 -0.4776202 154 157 140
4.1401121975723 2.14291138144055 -0.351866036653519 -0.4959324 0.8073388 -0.3197737 161 166 153
4.1467838646713 2.14851564856091 -0.349375277757645 -0.2684235 0.9632981 -0.002364013 156 157 142
4.14802924411924 2.14851564856091 -0.349953502416611 -0.2473293 0.9657107 -0.07893717 161 168 154
4.15047547834546 2.14713687391796 -0.354957282543182 -0.3479902 0.861975 -0.3686489 163 168 154
4.15238807218702 2.14707011671581 -0.35584682226181 -0.3507341 0.8567058 -0.3782072 154 156 139
4.15516791361005 2.14764828177014 -0.357314586639404 -0.1699449 0.8714489 -0.4601038 161 165 154
4.11702815311582 2.0771285960249 -0.303207248449326 -0.2433965 0.07780389 0.9668013 196 197 195
4.15883735435636 2.14931625814953 -0.356803089380264 0.1967402 0.9268335 -0.3198017 159 166 154
4.15483436601789 2.14869350882092 -0.355691134929657 -0.1789764 0.9513591 -0.2507654 159 164 151
4.14980832355649 2.14807087870159 -0.35226634144783 -0.2939694 0.9177901 -0.2669145 165 169 160
4.15327761190564 2.15007240267315 -0.351554691791534 -0.09791765 0.9848745 0.1429484 169 172 165
4.15254691856534 2.14776582212963 -0.347869396209717 0.1195774 0.8411716 0.5273819 197 198 196
4.16049788015516 2.14909381361523 -0.352221876382828 0.2722247 0.9605862 0.05628408 178 182 173
4.15576837080152 2.14958304853954 -0.352977991104126 -0.05457581 0.9951226 0.08217309 172 175 171
4.16080323475034 2.14941412897625 -0.353431671857834 0.3444925 0.9366711 -0.06302418 173 177 170
4.15447852628858 2.14822644682446 -0.349286317825317 0.1450529 0.8349056 0.5309353 194 196 191
4.15790328996808 2.14847106428661 -0.350153654813766 0.08416683 0.8807997 0.4659484 177 178 168
4.13855544346006 2.14057630987682 -0.341903001070023 -0.3952574 0.6537841 0.6452426 184 184 176
4.13848427551419 2.13983351679363 -0.341244727373123 -0.354219 0.6743683 0.647886 182 182 173
4.14242503660352 2.14042062254467 -0.34007939696312 -0.2425625 0.6545871 0.7160161 184 184 175
4.13802168386609 2.13757402391949 -0.338956356048584 -0.3295985 0.6916618 0.6426264 182 177 172
4.14216927307279 2.13686246367016 -0.33712163567543 -0.2025424 0.7308577 0.6517848 182 182 173
4.14247838276059 2.13980681391277 -0.339269906282425 -0.2401847 0.6506385 0.7204033 182 183 175
4.14189127700956 2.13864154310742 -0.338300287723541 -0.2173328 0.6940672 0.6863214 183 183 174
4.14418933408887 2.14086539240399 -0.340034931898117 -0.232732 0.6525926 0.7210817 184 184 175
4.1435369612518 2.14028722734966 -0.33967912197113 -0.2294561 0.6631212 0.7124747 184 184 177
4.14884892719419 2.1396136948637 -0.337302714586258 -0.2286772 0.7143744 0.6613441 183 184 176
4.15043101328046 2.14086539240399 -0.338255822658539 -0.1935371 0.7734454 0.6035939 186 187 180
4.14887431877286 2.13873047323742 -0.336476713418961 -0.2543563 0.711663 0.6548577 186 186 178
4.15049777048261 2.13947553129711 -0.336721330881119 -0.2347832 0.7538916 0.6136158 184 185 177
4.15844515579374 2.14120907278576 -0.337451159954071 0.1059809 0.8553205 0.507144 186 187 180
4.15830359476239 2.14042062254467 -0.336343258619308 0.1464492 0.8677727 0.4748928 183 185 177
4.13944498317868 2.14388997049847 -0.344927489757538 -0.4843057 0.7852951 0.3856937 171 174 166
4.13773999231488 2.14154738874951 -0.342940807342529 -0.4284766 0.6748583 0.6008112 184 184 175
4.139889753038 2.14274830313244 -0.343652486801147 -0.3631892 0.7319662 0.5764713 187 187 181
4.14122412222059 2.14544672461071 -0.344126880168915 -0.3479193 0.7828379 0.5158653 176 178 170
4.14251396673352 2.1450908848814 -0.34403795003891 -0.3150957 0.7817355 0.5381489 178 180 169
4.14393726604612 2.14629168005505 -0.345238834619522 -0.3779066 0.8617234 0.3385547 181 182 177
4.1487472416702 2.14540214033642 -0.343688458204269 0.06680992 0.7309806 0.6791199 187 189 184
4.15471706407697 2.14541429968395 -0.34592217206955 0.2297611 0.7336252 0.6395341 182 183 173
4.15307745950849 2.14591366739788 -0.345394521951675 0.2410041 0.7576408 0.6065454 192 192 185
4.15229914205701 2.14705342741528 -0.346028327941895 0.2110329 0.7548733 0.6209922 195 197 192
