ply
format ascii 1.0
comment File exported by Rhinoceros Version 7.0
element vertex 482
property float x
property float y
property float z
property float nx
property float ny
property float nz
property uchar red
property uchar green
property uchar blue
end_header
0.873425444381967 0.296522221101209 0.741811478143631 0.02050371 0.978779 -0.2038905 134 140 146
0.86344601607783 0.296881388136345 0.742229294538085 0.01397505 0.9586414 -0.2842734 168 167 175
0.802819011265517 0.215628318490957 0.74661889762272 -0.02596369 -0.1616 -0.9865147 157 162 173
0.86687211660933 0.296240888961966 0.740094318626921 0.004746367 0.9538536 -0.3002345 148 152 160
0.869220542978181 0.296373269537939 0.741815802286765 0.02368018 0.9688056 -0.2466882 157 161 166
0.867483748416969 0.295773299683058 0.738262577597887 0.005006414 0.9428104 -0.3332918 118 125 131
0.864220199670987 0.29549797892717 0.737343876114781 -0.09118839 0.878695 -0.4685934 143 148 163
0.860956362505239 0.295256222582184 0.737929304152207 -0.13107 0.8671008 -0.4805796 147 151 161
0.865061178604828 0.294734163061781 0.736263362048899 -0.0765772 0.8325009 -0.5487059 140 146 160
0.863577014421092 0.294555924170119 0.735252865631287 -0.0984586 0.8073068 -0.5818605 162 167 175
0.870814922794379 0.296895464178797 0.740517950676348 0.02374164 0.9734717 -0.227572 137 143 149
0.870084538145184 0.296832457963997 0.73932875733146 0.005213093 0.9641158 -0.2654309 116 124 127
0.871728802560627 0.295820203345311 0.739711875411334 0.0005945177 0.9672272 -0.2539116 124 131 135
0.869260785474907 0.296069032519836 0.738836186213215 -0.01170625 0.9556031 -0.2944243 118 125 130
0.873529461639858 0.29485840537741 0.735374427513945 -0.03672243 0.8719378 -0.4882377 148 156 165
0.868799140593887 0.294600295374639 0.735169461891502 -0.09984031 0.761965 -0.6398758 134 144 156
0.871547307630024 0.294691644908092 0.734506337646025 -0.04368055 0.8358086 -0.5472806 144 149 162
0.870598773846505 0.293911249863085 0.733629568855941 -0.0799601 0.7226383 -0.686586 162 163 170
0.872306698022115 0.294933596826489 0.73356802657298 -0.01702681 0.7608705 -0.6486803 164 168 173
0.869789092274981 0.289983434387681 0.732696686980971 -0.03381334 0.132852 -0.990559 181 182 190
0.874545423701141 0.288669956389211 0.732596717408364 0.01488404 0.0007327417 -0.999889 154 154 162
0.869564187345083 0.287462002261847 0.732381791713241 -0.04065266 -0.03898638 -0.9984124 176 178 188
0.870064577051529 0.284756838408511 0.732891465171694 -0.06312478 -0.1031606 -0.9926596 159 159 168
0.874321623258398 0.285297091128995 0.733040392138815 0.02801486 -0.09609617 -0.9949778 165 169 176
0.845717478535504 0.293930280713254 0.743274200380389 -0.1685118 0.8930652 -0.417179 138 146 151
0.848554290624236 0.294697050435194 0.742595175835378 -0.1978614 0.8875321 -0.4160981 101 108 116
0.844809675176616 0.292589567595211 0.739197269005426 -0.1078923 0.8590662 -0.5003643 149 152 165
0.846019343613013 0.292616179673111 0.738321623537241 -0.1629597 0.8219579 -0.5457375 135 142 151
0.843777688117865 0.291755904849723 0.737132446014186 -0.2295806 0.6593336 -0.7159413 167 171 182
0.843044336894662 0.290691299839384 0.737666081593311 -0.2304696 0.6484467 -0.7255348 162 170 178
0.846713601830995 0.289487663474688 0.734751388838827 -0.2655201 0.473756 -0.8396752 164 169 178
0.854701358428297 0.293171951987151 0.737259989334512 -0.196247 0.8079028 -0.55568 186 188 197
0.856830802782807 0.293570899308768 0.73728838434577 -0.2104249 0.7914484 -0.5738735 178 181 193
0.852344402205035 0.292325432633041 0.736879879396656 -0.1889478 0.8013861 -0.5675201 181 185 192
0.853944281755744 0.291859004087248 0.735856543024554 -0.1799538 0.6906983 -0.7003946 159 168 174
0.854124154821795 0.289796994604539 0.733804250774918 -0.1159239 0.3537104 -0.9281436 167 167 174
0.848137607462933 0.283403009733989 0.73413377590834 -0.1430798 -0.02740879 -0.9893315 148 151 157
0.847195186218964 0.281363882891816 0.7344831652866 -0.08878091 -0.1111357 -0.9898317 142 143 151
0.847377350969915 0.281368844754347 0.734142412665478 -0.08878091 -0.1111357 -0.9898317 145 147 153
0.854534080562766 0.284639814194678 0.733843613807382 -0.08484956 -0.1805022 -0.9799079 160 162 173
0.855830309342575 0.282772565586957 0.733520619870758 -0.05197032 -0.3943758 -0.9174784 145 150 160
0.844152466312351 0.282702381687211 0.735002329201635 -0.1352023 0.05558558 -0.9892576 156 158 166
0.84507877860889 0.282204098636997 0.734465117169025 -0.1059245 -0.005306021 -0.9943601 146 149 158
0.859960105390679 0.29265502085204 0.735021071247732 -0.1586201 0.6814712 -0.7144485 140 145 160
0.858741764534758 0.291415250703754 0.734310517481852 -0.1436418 0.5113885 -0.8472597 141 152 162
0.865577624839535 0.291776870312616 0.733425595257337 -0.066718 0.4172543 -0.9063374 170 173 178
0.867970177203399 0.292856179988078 0.733239829210315 -0.1207271 0.5024733 -0.8561224 183 183 191
0.861063282300105 0.287714242146656 0.733420647977878 -0.05498458 0.1083193 -0.9925944 168 172 180
0.863599351219199 0.288131403182483 0.733020088539649 -0.07331365 0.08466028 -0.9937091 148 153 161
0.85934346069452 0.283872128337546 0.733478439764327 0.03974628 -0.3039783 -0.9518495 149 151 158
0.859196518562455 0.283185896019276 0.73340217203526 0.03974628 -0.3039783 -0.9518495 139 143 152
0.864200370769311 0.285134554158301 0.733440996777419 -0.007197121 -0.1757092 -0.9844159 154 159 167
0.86692799577408 0.284748335064112 0.733182243366835 -0.06583569 -0.1400519 -0.987953 158 162 169
0.866349777077478 0.283429314316509 0.733167401063261 -0.05997276 -0.2418112 -0.9684682 157 162 170
0.881052852507981 0.297221080818677 0.74354093085718 -0.06018952 0.9777884 -0.2007661 142 144 152
0.884251313143307 0.297287255579764 0.740827373827312 -0.0967812 0.9683642 -0.2300088 134 139 150
0.884809412973531 0.296270649735927 0.738866941252041 -0.08045572 0.9526645 -0.2931846 125 130 135
0.878446637901874 0.296038007261313 0.739137095957841 -0.03669547 0.9733372 -0.2264252 125 131 136
0.875903472183512 0.25635498250062 0.742132051210615 0.04002422 -0.3526973 -0.9348811 138 144 146
0.877946554426422 0.295919399720314 0.738005612897963 -0.03800083 0.9586895 -0.2819049 118 124 127
0.884228704497558 0.296100376681447 0.736903212970159 0.060032 0.829622 -0.5550888 144 148 153
0.883535906871296 0.295840872340647 0.735700768083063 0.02731794 0.8272272 -0.5612031 150 154 163
0.88747738500796 0.297035022060541 0.73933011957662 -0.09743408 0.9504204 -0.2953093 126 133 140
0.891007954349956 0.296985992330521 0.738365056243725 -0.03604669 0.8673392 -0.4964104 125 131 138
0.888288654413168 0.296270086141779 0.738209720970992 -0.05079755 0.8873652 -0.4582604 132 139 149
0.802009945850431 0.210842080888713 0.76148787678685 -0.3691015 -0.8315224 0.415132 119 130 127
0.892113772090517 0.297273392853537 0.739051164813872 -0.03364912 0.8776922 -0.4780419 131 135 144
0.887765076999508 0.296070172461787 0.737169204882007 -0.007125429 0.816478 -0.5773326 133 140 145
0.894211538356913 0.295294906934304 0.736166360172104 0.1043809 0.531881 -0.8403614 166 165 171
0.888042518878948 0.295265205474732 0.735473807493412 0.03762898 0.6310058 -0.7748651 150 153 159
0.890274309128794 0.294389822389685 0.734738071616092 0.08818568 0.4548278 -0.8862025 168 167 174
0.893453336238757 0.29030580836816 0.735254982588657 0.1663848 -0.05538755 -0.9845041 158 162 172
0.894640465518945 0.286613825136109 0.736295568137994 0.0807272 -0.131885 -0.9879724 149 151 161
0.891930506184432 0.285749970577813 0.735786401129528 0.1508489 -0.2075751 -0.9665181 144 146 160
0.890962168070029 0.285573629778147 0.73548444552152 0.1715909 -0.2416654 -0.9550678 142 145 155
0.889320292861407 0.290890910635245 0.73540808363214 0.1713704 0.0132495 -0.9851176 164 167 176
0.88631984495701 0.292320320043483 0.734059909355551 0.1866945 0.3605455 -0.9138666 175 176 186
0.886348500736138 0.291745500770548 0.734247834303768 0.2129018 0.2775412 -0.9368263 171 174 187
0.887735527603934 0.292300550662228 0.734240083987871 0.1842932 0.3069124 -0.9337242 174 175 185
0.887000997000476 0.289064356877429 0.733769084682695 0.2474127 -0.07625388 -0.965905 162 162 173
0.889722712243131 0.289272901732262 0.734333021532772 0.2076584 -0.115116 -0.9714043 162 164 174
0.889482509576696 0.28699706680155 0.735355778592164 0.2234769 -0.21257 -0.9512476 146 152 162
0.88744742352947 0.285946430078389 0.734923997380688 0.316291 -0.207029 -0.9257964 138 147 151
0.886598748056008 0.288097223107207 0.733795529517432 0.2572484 -0.07464597 -0.963458 153 157 165
0.878707278523384 0.296115294199838 0.736468670349047 -0.04113107 0.9170012 -0.396758 119 125 132
0.879231594684069 0.295081945647935 0.736121287736064 -0.01026687 0.8677419 -0.496909 116 123 132
0.801754857794066 0.25295657672498 0.814408128392523 -0.549237 -0.5654305 0.6153268 120 122 132
0.881270616067611 0.295089859564468 0.735668808540455 0.05765398 0.7904885 -0.6097575 142 151 158
0.879727845516893 0.287987241820944 0.732987353702567 0.04386489 -0.06243288 -0.9970847 175 175 182
0.883832556346341 0.291621944145182 0.733932125113518 0.1606322 0.2848446 -0.9450189 172 173 181
0.882665087879521 0.288254526226453 0.732875163143741 0.1466999 -0.05890675 -0.9874256 175 177 182
0.883762935611148 0.288332214816072 0.733041666165284 0.1790514 -0.05511283 -0.9822949 174 175 183
0.879822223843563 0.291205196206829 0.732807459698078 0.08408058 0.2256274 -0.9705786 191 188 192
0.879536123354763 0.286026500915972 0.733361181421312 0.02658548 -0.1471583 -0.9887556 160 163 167
0.882626123836156 0.286349730987243 0.733282446602204 0.1472733 -0.1228215 -0.9814405 178 178 186
0.881432186289315 0.285850988061585 0.73335560004725 0.09583633 -0.1455776 -0.9846941 170 172 177
0.895080823188942 0.295878302999446 0.736642974925827 0.08910522 0.5653239 -0.8200423 160 159 167
0.898000149934142 0.292387569108186 0.736209509928032 0.2557145 0.1519942 -0.9547293 161 162 168
0.899197001741815 0.288825965437166 0.735814368933058 0.2428396 0.02439681 -0.9697596 170 176 179
0.921082868423621 0.304298675500104 0.756214525351196 -0.2278554 0.8271386 -0.5137351 147 150 156
0.922857392230173 0.304304921303069 0.755852859985091 0.1832405 0.8836122 -0.430874 159 160 164
0.920083729922785 0.302465254266103 0.755141679913871 -0.336013 0.7579747 -0.5590793 141 147 152
0.920897355971796 0.302526819158628 0.754047229659588 -0.3824759 0.7506576 -0.5387257 150 151 162
0.928511282836691 0.298888203407357 0.755473133669612 0.6250709 0.7404653 -0.2469768 117 120 121
0.928763679686193 0.297344375837025 0.751192319666142 0.5598703 0.7989804 -0.219489 100 106 100
0.929391540774696 0.29586757347573 0.748659633001709 0.5592303 0.7666659 -0.3154124 103 109 107
0.932492129596899 0.294770183624087 0.749879653478501 0.6904382 0.7057469 -0.1587968 113 116 115
0.935991917288588 0.29127539176961 0.752730747490432 0.6827978 0.7127514 -0.1605383 112 115 116
0.934262005978399 0.291394260269341 0.747196793538191 0.6828687 0.6650602 -0.3022999 112 114 117
0.919232254606428 0.298634153975453 0.751083700483658 -0.4298829 0.7140009 -0.5526332 134 139 149
0.92146554184208 0.299298816950916 0.750139196691545 -0.4902191 0.6722091 -0.5548152 146 150 161
0.910272844072715 0.214819382841608 0.748708010923637 0.1421337 -0.3680629 -0.918873 167 170 175
0.91911235651075 0.29833032944472 0.749743867917863 -0.4419751 0.7230591 -0.5308895 128 132 141
0.919956411734023 0.297304253472888 0.74860556680918 -0.4264822 0.7102848 -0.5600075 125 129 138
0.923796328732433 0.299138823724933 0.749164187675427 -0.07063654 0.7923221 -0.6060001 152 153 163
0.923648230678693 0.298646676822602 0.74723065487827 -0.5320712 0.6429723 -0.5508966 128 132 145
0.919162716565515 0.295724989263741 0.745967035310608 -0.4269166 0.736798 -0.5242812 113 119 124
0.920304652047612 0.294307561143836 0.743586372017405 -0.4367487 0.6801851 -0.5887264 116 121 125
0.923329859164674 0.295201644199689 0.744067582705866 -0.4724436 0.649597 -0.5956682 116 121 126
0.930422608374285 0.295281093275976 0.744462999641314 0.5421067 0.7389312 -0.4001263 119 122 122
0.925246403657482 0.2976606211411 0.74406687941144 -0.1619759 0.8254257 -0.5407736 129 131 138
0.925679914104744 0.297209778578703 0.741929284792832 -0.09280379 0.7762108 -0.6236058 152 153 163
0.924791363956467 0.29561378279351 0.742230382803234 -0.2762862 0.6890419 -0.6699904 125 130 137
0.929179027898863 0.294779629898819 0.741414148145605 0.3713762 0.6137838 -0.69667 141 140 146
0.937640197661397 0.289109659346236 0.748448166897541 0.70227 0.671285 -0.2370514 109 110 110
0.937330322450462 0.288165425725222 0.745372171496862 0.7067221 0.5092877 -0.4910906 105 110 110
0.936221393864777 0.287856681037271 0.74325806888318 0.632459 0.3520825 -0.6899518 113 119 116
0.760298430574632 0.241702562134216 0.75994472749754 -0.6477201 -0.7498681 0.134746 131 140 157
0.91910343298041 0.292063875910477 0.741829101970187 -0.3732494 0.6367646 -0.6746967 126 128 135
0.922058648599888 0.291285491369761 0.741358574994018 -0.2760019 0.4609832 -0.8433964 133 136 143
0.915162966110568 0.287647555635168 0.740201642409543 -0.1833133 0.4307435 -0.8836607 120 122 132
0.923364311860359 0.293511635857601 0.740560487035449 -0.3454504 0.4959788 -0.7966612 120 127 128
0.924956176165819 0.294053212538961 0.739520054183291 -0.1156061 0.4949922 -0.8611724 147 150 147
0.92451322027889 0.291551316185063 0.739672109948188 -0.1737809 0.2496615 -0.9526118 145 148 152
0.926481451242195 0.294409519923107 0.740046438005554 -0.08921673 0.4863209 -0.8692138 158 158 163
0.927361407115141 0.289307749147922 0.739204248045319 0.09192409 0.1033288 -0.9903904 170 169 178
0.927268882142647 0.289057191313979 0.738857996153234 0.06028728 0.06254172 -0.9962198 169 167 176
0.829298972414423 0.236795608807793 0.745727801863365 0.04824974 -0.08472249 -0.9952357 132 136 144
0.900450374479973 0.239168600006694 0.741584096874767 -0.02593378 -0.01184339 -0.9995935 176 163 158
0.840996150196707 0.260318127231066 0.74158060368898 0.1369077 -0.2806195 -0.9500048 234 190 185
0.773014942682533 0.234951016559448 0.774259453159172 -0.574048 -0.6713894 0.4687271 151 155 166
0.904533636627078 0.22475684736689 0.745335279573332 0.1000394 -0.2050778 -0.9736196 148 147 151
0.918757736534428 0.280358539559352 0.739723225156928 0.05071613 -0.06850419 -0.9963609 140 144 146
0.812640722101474 0.242637623500203 0.74356231855142 -0.06088161 -0.04265657 -0.9972331 205 177 175
0.9269631131023 0.277544073466857 0.740276137219971 0.1382613 -0.007697023 -0.9903659 143 143 154
0.833991111498253 0.202759473216761 0.767789361421852 0.04316526 -0.9963032 -0.07427448 89 93 94
0.804307780721371 0.270203769529694 0.743641273685377 -0.1973918 0.4649682 -0.8630418 118 124 127
0.804818183202002 0.252367924924134 0.816358129553032 -0.5196128 -0.6393671 0.566756 108 114 119
0.782904552377163 0.228630846642642 0.745256810472656 0.1618847 -0.3582328 -0.9194903 95 101 101
0.86672013744746 0.191536280481649 0.780055088272739 0.07764076 -0.9944506 -0.07099307 126 131 137
0.759796326208699 0.246076350220791 0.771902140483165 -0.5618732 -0.3502737 0.7494043 177 177 185
0.863549428741395 0.2793793826806 0.735796527984207 -0.09743588 -0.4603068 -0.8823967 135 142 152
0.836616829391858 0.206410489466929 0.790679988109679 -0.4546825 -0.807848 0.3750273 128 135 144
0.795589764831249 0.241301110502147 0.7409896409125 0.03693591 -0.3652565 -0.9301739 131 137 140
0.872423596356785 0.267684804935742 0.738579864949632 -0.1293301 -0.1761211 -0.9758356 220 185 179
0.828284526062219 0.212950527538374 0.790390036721964 -0.4747149 -0.6516744 0.5915796 160 163 170
0.93712546611086 0.225373446612337 0.751233051504475 0.14929 -0.6727729 -0.7246304 126 131 135
0.765300281819339 0.267522900945559 0.773421252354808 -0.5778133 0.2098112 0.78874 174 181 187
0.803638370097332 0.214768076084479 0.773277609415222 -0.3688743 -0.8427129 0.3921311 157 162 167
0.775114005130383 0.227223414730816 0.756973545275904 -0.6475404 -0.7511115 0.1285419 107 112 117
0.874415157994591 0.275212877539303 0.735295923673802 -0.03769205 -0.4235746 -0.9050767 177 178 187
0.762904272550664 0.239512892885002 0.761028539439243 -0.6529248 -0.7453628 0.1346233 136 145 154
0.849400498806275 0.197790686015745 0.765409109216087 -0.5257251 -0.8385124 -0.1432132 116 119 131
0.75531470683377 0.256482669263779 0.758733458335212 -0.757067 0.55978 -0.3368915 134 138 151
0.782432359939647 0.252917170277092 0.788678642918071 -0.7389778 -0.1575031 0.6550606 111 114 121
0.791198078213232 0.216771428787326 0.768966432699945 -0.3461517 -0.8800404 0.3251276 126 132 143
0.838614458458204 0.228654440011943 0.747780707853516 -0.01562289 -0.04793444 -0.9987283 154 146 146
0.788676252589552 0.227139251195351 0.779397217992171 -0.5137755 -0.5990385 0.6141559 163 167 171
0.94502321641802 0.268081525627553 0.748009726267776 0.7947441 0.02114498 -0.6065761 107 113 115
0.89560010588706 0.209059179821556 0.749678083067605 -0.1198248 -0.7244322 -0.6788519 195 194 201
0.799344281511431 0.23872879019513 0.742441661298327 0.02149937 -0.2794056 -0.9599324 125 133 137
0.773703154587258 0.229540772870168 0.761187603430658 -0.6610195 -0.7313361 0.1679308 135 142 154
0.84798946991168 0.197625100361546 0.769669314228747 -0.4938409 -0.865688 0.08188718 99 104 108
0.796603671860898 0.250179339427215 0.80381120472948 -0.7785525 -0.4945847 0.3863183 109 117 129
0.812687670821367 0.246840481907928 0.743476001804826 -0.09282989 -0.00785685 -0.9956509 174 149 126
0.824712584624315 0.218668093168573 0.793766960153936 -0.4419866 -0.6052641 0.6620448 125 132 139
0.859484253529096 0.239862604481694 0.745335415236573 0.1227784 -0.1053205 -0.9868298 167 151 135
0.798600910529698 0.247161648447934 0.802335905443062 -0.723395 -0.5417807 0.4279877 122 130 139
0.822331372771255 0.208391027706823 0.748503704487184 -0.009021745 -0.28522 -0.9584196 134 142 148
0.764447246863186 0.239187633004959 0.765118860674696 -0.6536208 -0.7442524 0.1373613 116 123 137
0.854921422805509 0.197628231155603 0.788418165444162 -0.3885019 -0.8488744 0.3584391 119 123 130
0.844241614001353 0.235791785325308 0.746121097934978 -0.1105689 -0.1199136 -0.9866078 171 149 125
0.76269463824679 0.238028367309756 0.752938122044228 -0.7157386 -0.697031 0.04319763 158 161 167
0.836928067568574 0.27240129500643 0.736262973454318 -0.05350451 -0.1242998 -0.9908011 145 143 142
0.780683225698984 0.227124961742917 0.771712425219199 -0.6451147 -0.6432925 0.4123127 93 102 106
0.779428801133524 0.222030861284257 0.748110678684859 -0.7111524 -0.6875865 -0.1465845 135 136 152
0.839681299871476 0.224312592114592 0.747085618383986 -0.008309312 -0.1056973 -0.9943636 131 129 139
0.796758708557904 0.252752225001386 0.806587920155059 -0.8126976 -0.4606542 0.3568197 115 121 135
0.792957895307183 0.271800587093613 0.748559425353076 -0.2916994 0.5875486 -0.7547835 117 123 134
0.805419930937551 0.214951586556002 0.775372125667567 -0.3749158 -0.8257211 0.4214532 135 143 149
0.771931640710734 0.247117338681499 0.741916096903484 -0.1326311 0.2026478 -0.9702283 138 144 152
0.804077243675526 0.257086396824773 0.822754788707617 -0.5753292 -0.674103 0.4632295 144 151 167
0.871478377031803 0.246142722015234 0.746496614667341 -0.1546976 -0.2525207 -0.9551449 165 161 164
0.941475614290289 0.230042847299723 0.747554343417304 0.2967655 -0.7119603 -0.6364297 131 133 142
0.761807536484787 0.243443927191165 0.772382919250731 -0.6120613 -0.5490868 0.5691085 177 178 188
0.937625181422041 0.26549263484558 0.741444276463982 0.1568065 -0.02701423 -0.9872598 164 167 173
0.850628497493655 0.204530952581003 0.797705313098626 -0.3496199 -0.8649384 0.360066 105 111 114
0.817790297054673 0.214395082337002 0.747154090294889 0.005336491 -0.129815 -0.9915238 144 147 157
0.767620579553943 0.261962462186378 0.751915475384448 -0.2623701 0.5925626 -0.7615982 165 167 179
0.80007488096228 0.274772456618629 0.748124353128877 -0.2772782 0.5731987 -0.7710773 120 126 133
0.791805341396193 0.262909698134151 0.808723533790569 -0.8649504 -0.4177147 0.2781637 119 125 136
0.842168638547989 0.201824109760473 0.774589864620997 -0.4570296 -0.8788227 0.1370933 89 97 99
0.848219935695832 0.243506515564825 0.744970939436344 0.01630164 -0.1405044 -0.9899459 130 125 119
0.852282910860449 0.198442204154924 0.756744524188046 -0.3250509 -0.8053923 -0.4956663 108 117 115
0.834190494271722 0.203504866570012 0.765373749552542 0.08533159 -0.9792091 -0.1840336 93 97 100
0.761303571973797 0.240068826751759 0.757444891378974 -0.6599912 -0.7384542 0.1381916 123 129 144
0.804667598385267 0.271278489397325 0.744032727867208 -0.2083772 0.5006942 -0.8401693 118 122 127
0.803797452226348 0.211968067595273 0.747182030496872 -0.08178951 -0.2744166 -0.9581262 148 153 161
0.791949481625601 0.260489791861543 0.803843109661146 -0.8746514 -0.3922105 0.2848785 111 120 133
0.802913057528552 0.263855710098028 0.741719960018987 0.09232838 0.08615421 -0.9919944 112 118 117
0.816697547228565 0.20348213120962 0.755357677049494 -0.3635833 -0.8976017 -0.2492357 113 122 131
0.828678442866791 0.202904472960353 0.756913423203385 0.1938145 -0.9675874 -0.1618966 116 120 126
0.875095597993232 0.263006318612976 0.739128407542431 0.01609603 -0.2929997 -0.955977 182 168 163
0.822381266972523 0.228729290114563 0.746611721071926 0.03911481 -0.2015744 -0.9786919 233 190 180
0.865830849403875 0.192982171669077 0.77615804907516 0.09011862 -0.8865586 -0.4537538 102 108 113
0.79478658563726 0.252421253608884 0.801797114392202 -0.790179 -0.455413 0.4101416 117 124 133
0.866291599421455 0.280966080701435 0.734160272538713 -0.09168952 -0.3584745 -0.9290258 162 164 172
0.913667469500772 0.210268043302136 0.751354535065591 0.277252 -0.5217789 -0.8067701 137 146 155
0.887377427397363 0.22529986480859 0.745584105984334 0.1712872 -0.2053838 -0.9635758 159 156 161
0.804505918706488 0.231513127142144 0.743942483877165 0.08083216 -0.2424317 -0.9667953 140 143 149
0.818336984455184 0.204915403377364 0.749387072822085 -0.1949117 -0.6222163 -0.7581928 126 129 138
0.761129201144332 0.245779126681921 0.746723919807133 -0.6710947 -0.07421879 -0.7376472 132 138 150
0.82549960579883 0.22550654163325 0.747433114744212 -0.007491853 -0.09176225 -0.9957528 226 186 177
0.818511694593455 0.211876940172922 0.780395517959205 -0.3464779 -0.8142002 0.4658661 115 118 123
0.796977772826766 0.225373083489464 0.782742645869583 -0.4140269 -0.6448677 0.6424385 112 123 125
0.781939230823904 0.235476955593308 0.781749464334907 -0.5512438 -0.5641125 0.6147416 185 187 201
0.783840565305381 0.233253863258432 0.782223169116901 -0.6113574 -0.6239165 0.4867961 174 177 189
0.848158192584295 0.256895651016273 0.743675706454038 0.06667549 -0.2054006 -0.9764041 123 125 119
0.838298840046139 0.225150448836646 0.746958800148612 -0.001056269 -0.09138506 -0.9958151 141 140 145
0.938525325808068 0.238510780826575 0.743076933310612 0.04970667 -0.08513461 -0.9951289 136 139 146
0.803310735816238 0.229510011025941 0.792425823815343 -0.3239627 -0.6472416 0.6900193 137 143 153
0.758971354015162 0.243786810429697 0.764087419427405 -0.6471278 -0.7538734 0.11358 151 162 178
0.811158716341163 0.212379228209744 0.776153314096717 -0.4188229 -0.8198955 0.3903316 122 132 140
0.928806889381478 0.220252432755408 0.752489964494874 0.3667448 -0.4905103 -0.7905049 132 135 142
0.823651751255156 0.22777697217524 0.746996686267771 0.009051548 -0.1898133 -0.9817784 219 184 174
0.851295820552271 0.200126079325289 0.789807770047456 -0.4035155 -0.7968385 0.4496929 118 121 126
0.861966740566702 0.205710626113474 0.750933021524673 -0.07635153 -0.5021969 -0.861376 168 169 179
0.804153547549829 0.216615618345508 0.776178090218069 -0.3627274 -0.8324665 0.4188418 127 131 135
0.766381263747083 0.26131137855204 0.77469172283029 -0.4943833 0.07456236 0.8660402 118 126 136
0.848843423585215 0.269935907061376 0.738486153674763 0.06101122 -0.3152611 -0.9470418 130 136 139
0.839219103382786 0.220562694290229 0.747456399977655 0.01570498 -0.1335295 -0.9909204 126 129 143
0.778424415916503 0.263293580797636 0.74865993380446 -0.3385313 0.5054549 -0.7936698 164 168 175
0.894961939819941 0.278147778989732 0.736795243881004 0.004736952 -0.1645389 -0.9863593 153 155 165
0.790074683915524 0.247922478001196 0.739153243437077 0.1016274 0.02594936 -0.9944841 140 146 150
0.84659693891872 0.263586325969203 0.740902893010802 0.005894492 -0.3721149 -0.9281679 214 180 167
0.862402172261887 0.257804966990043 0.742194883790697 -0.1708011 -0.375734 -0.9108518 209 175 157
0.793273789755763 0.252030179687083 0.798310046991449 -0.8016456 -0.3835776 0.4585113 113 119 125
0.84134480512856 0.269292072226694 0.738263495082183 0.2130887 -0.3777676 -0.9010465 130 131 140
0.754921541819454 0.248623355840898 0.76838205188197 -0.7410377 -0.2658314 0.616601 158 164 174
0.919436112625956 0.227939825192921 0.745945897186014 0.04900701 -0.3342478 -0.9412103 142 141 148
0.815355652775322 0.236221558312861 0.802975342775618 -0.3816209 -0.7145625 0.5863155 106 115 119
0.92124301582261 0.220006723903436 0.767301823685644 0.4798025 -0.6974031 0.5323706 122 125 123
0.772155062970293 0.268426619298528 0.778469909064715 -0.7460446 0.02642747 0.6653713 94 101 103
0.858635542382292 0.197948791657126 0.791694146474217 -0.3823565 -0.8135493 0.4381106 106 111 113
0.840523239072084 0.206030758574201 0.753082089294624 -0.01526013 -0.8109446 -0.5849241 95 102 107
0.85558273892699 0.280402184888183 0.733911799373932 -0.01654135 -0.420119 -0.9073182 142 147 155
0.845869652678939 0.200804636567132 0.778965537287624 -0.4178653 -0.9085055 -0.002516347 74 82 77
0.811904419763017 0.2108989377469 0.747750763320124 0.1010539 -0.3131711 -0.9443051 125 131 136
0.920476612463063 0.28140187126923 0.73947082285698 0.06476098 -0.06324666 -0.9958945 132 139 143
0.854431542517039 0.200626014279201 0.793407993275649 -0.4066232 -0.7880606 0.4621883 96 101 105
0.857059230579695 0.278930202738165 0.735489659462002 -0.0143637 -0.4787798 -0.8778176 119 124 137
0.771976082749436 0.229797260340447 0.754045902634558 -0.6753345 -0.7299423 0.1053925 120 124 135
0.796677270456427 0.260412760100025 0.819456856591971 -0.665498 -0.6173794 0.41947 140 147 156
0.897413475831586 0.203113704847859 0.75944900780447 -0.09138217 -0.8561162 -0.5086396 133 137 152
0.818420363267434 0.208502634781548 0.748776844823542 -0.180068 -0.3509241 -0.9189276 151 153 163
0.935949769092815 0.27632713579843 0.743825971283502 0.3351498 -0.02222813 -0.9419026 124 128 139
0.796377368434667 0.238899522014482 0.742096994057284 -0.04846881 -0.351985 -0.9347499 121 128 137
0.833542700585069 0.219829413319184 0.799769199380457 -0.5305544 -0.5000111 0.6844712 116 124 136
0.880447650738495 0.235460778535965 0.745899178760914 -0.2136729 -0.1157481 -0.9700239 191 186 192
0.859774244789249 0.24499267857793 0.745694839860878 0.02918614 -0.1312111 -0.9909248 222 185 181
0.843994865806946 0.270148643809807 0.738494485579593 0.2017537 -0.4331799 -0.8784364 144 142 153
0.83903984576205 0.24349300503642 0.743695391383021 -0.03368883 -0.2925174 -0.9556665 228 190 186
0.894510423964395 0.228134306244699 0.74484933932614 -0.2536467 -0.3850606 -0.887351 149 155 165
0.827717770674866 0.250765963037657 0.74294299273327 -0.03016606 -0.2114013 -0.9769337 126 130 130
0.779196556183215 0.237995105327637 0.781164871262162 -0.5047882 -0.4423446 0.7412962 147 157 162
0.826748685522199 0.233240740162494 0.810427865908909 -0.4355384 -0.7785038 0.451927 117 122 129
0.811739819041349 0.233266101865321 0.744151029958861 0.1310113 -0.1294791 -0.9828892 146 146 148
0.803310370018818 0.243940207854309 0.742016450695816 0.2681639 0.002976919 -0.9633687 101 108 108
0.796317407179055 0.21425991093575 0.747783441401834 -0.1283409 -0.4720049 -0.8722041 162 165 171
0.788318921689426 0.223181323546566 0.776661936903548 -0.5122945 -0.6117334 0.6027741 127 134 137
0.827624488156801 0.201664182182767 0.766555634203448 -0.03768876 -0.9979085 0.05251862 140 144 149
0.825420865657562 0.205634971820431 0.773255521182179 -0.3236264 -0.8600612 0.3944118 124 126 133
0.79876624929769 0.209402548057602 0.75745382359805 -0.3314217 -0.8863009 0.3234663 156 161 167
0.792676827345484 0.252692146491091 0.739247763073802 0.07192307 0.2013332 -0.9768788 127 134 132
0.818492497389206 0.220779777425305 0.746820606803121 0.03430317 -0.05219628 -0.9980475 134 138 142
0.899421760654762 0.264184554881609 0.740374429755113 -0.04315943 -0.1704541 -0.9844201 224 187 181
0.891328306491426 0.274792535887293 0.73771990814113 0.03216039 -0.2044645 -0.9783455 154 157 162
0.808031922931992 0.206738228104964 0.760116715389328 -0.3840044 -0.8432813 0.3760548 170 174 182
0.864152268800955 0.22925681886098 0.750650671833208 0.1451207 -0.09579875 -0.9847652 145 147 158
0.913711439947512 0.21711777695507 0.768227019871334 0.4944427 -0.6657507 0.5588403 122 124 127
0.838121381471417 0.204153203870653 0.777091606330455 -0.3645093 -0.919503 -0.14713 85 89 92
0.873466690229975 0.198141022946144 0.764186331238792 0.2852332 -0.778754 -0.5587345 119 124 135
0.837027733916951 0.231844914020133 0.746760932172456 0.02561632 -0.1232813 -0.9920411 145 136 134
0.841525660824052 0.245374177590631 0.742879030226812 0.04930389 -0.2436941 -0.9685981 160 140 126
0.888815424974032 0.256992836591085 0.742466795481952 -0.03925 -0.2297438 -0.9724593 216 183 177
0.80842844290373 0.221078313715799 0.746560449746613 0.08490494 -0.07514478 -0.9935513 156 161 165
0.827734756484024 0.202667215702302 0.760616849173173 0.1473294 -0.9887093 -0.02734963 121 123 124
0.790218175933185 0.266205589491551 0.807880693295056 -0.9146203 -0.3031931 0.2674764 142 147 159
0.877744499855389 0.236095251670012 0.746323702392969 -0.3090347 -0.1622275 -0.9371126 184 174 165
0.838517607426777 0.215948184456304 0.748786240950094 0.0369039 -0.1039263 -0.9939001 132 135 138
0.870750412567132 0.240344218329172 0.747423624837986 -0.1233479 -0.3123857 -0.9419132 212 179 173
0.78171856467024 0.265354703243715 0.748867340593371 -0.3265041 0.5063454 -0.7981286 131 136 149
0.828407022562901 0.275274968843262 0.737546089560673 -0.2304895 0.1071037 -0.9671625 150 155 162
0.9221965171288 0.262001044071293 0.73949842588458 0.04489614 -0.09793347 -0.9941797 220 183 173
0.797543985209688 0.226751119774284 0.744887521182659 -0.06415378 -0.1827291 -0.981068 145 146 157
0.794227115657724 0.250750066762468 0.740296194016738 0.2244517 0.09536285 -0.969808 111 117 115
0.759558042451439 0.248166263893716 0.747223408344952 -0.6222054 -0.01018982 -0.7827876 136 142 147
0.814926193176074 0.242115971684159 0.74348677939379 0.007827501 -0.1003212 -0.9949244 219 185 175
0.830325743697837 0.209639953378873 0.787487966436708 -0.432843 -0.7690732 0.4702907 136 140 151
0.785975385905692 0.217574234270037 0.745415237855251 -0.323807 -0.3810396 -0.8660011 166 172 179
0.822594697664368 0.223067185590016 0.795557145958111 -0.3705428 -0.5934283 0.7145215 115 122 133
0.771604583801726 0.229418949973185 0.747583733607836 -0.713398 -0.6988078 -0.05225827 107 113 120
0.847555830454227 0.232804609952664 0.745742862424074 -0.06663405 -0.2023475 -0.9770442 146 147 143
0.783700567178537 0.219746088090472 0.755332602127981 -0.6760015 -0.721692 0.1489384 144 146 161
0.79659760288654 0.236195223069782 0.743056402234534 -0.09564111 -0.300845 -0.9488652 138 140 147
0.753391540116738 0.249889527084019 0.766260982514813 -0.8634254 -0.2664232 0.428387 168 172 181
0.752027433734106 0.254528003983537 0.762541926454357 -0.9610288 0.2546089 0.107693 149 166 174
0.842217638828343 0.245014085907944 0.744229433718334 0.06383117 -0.2791727 -0.9581171 163 149 138
0.883719782620064 0.203585911395582 0.759720890723872 0.009268597 -0.8568629 -0.5154611 136 142 151
0.899321547247211 0.225521513540933 0.743765241744002 -0.02748113 -0.4038481 -0.9144132 137 143 148
0.779789109789215 0.22604446991935 0.767679588212694 -0.693948 -0.662678 0.2815921 126 132 143
0.844841443503638 0.201954703593175 0.75543316748614 -0.2257129 -0.910145 -0.347404 111 116 127
0.782103412960643 0.251393640193027 0.786237847697377 -0.7749534 -0.1746673 0.6074032 102 111 118
0.785026639466408 0.239499773927913 0.739811550679635 0.186386 -0.3977556 -0.89836 130 137 141
0.855421690644243 0.196275194615572 0.780745477917469 -0.4033898 -0.8925584 0.2015347 89 95 95
0.832005264672015 0.205759606607691 0.748527657057814 0.1451965 -0.7601653 -0.6332984 139 146 154
0.898562440254908 0.270348910724565 0.739120958967551 -0.03790373 -0.2305212 -0.9723288 149 149 149
0.934960589887276 0.23584293382242 0.744148804483467 -0.009392117 -0.1194651 -0.9927939 145 149 155
0.880813806428943 0.200243080121775 0.769838105061468 0.3640955 -0.9302826 0.04481829 107 111 117
0.826778957144676 0.227610452615395 0.747535107565689 -0.01910305 -0.1860557 -0.9823535 190 160 145
0.859701727676229 0.195969327488341 0.79018054253731 -0.3732371 -0.8361742 0.4018793 112 116 116
0.85705153830746 0.200618741191385 0.753916651379336 0.05268255 -0.5532327 -0.8313592 155 155 160
0.875240504046761 0.197276081016169 0.779252296222643 0.858024 -0.5098638 -0.06191694 106 109 109
0.776722590645873 0.249891306879929 0.741810462873166 -0.2586758 0.3613316 -0.8958383 128 133 145
0.794763907956346 0.238218274325905 0.794695862799348 -0.4295186 -0.4148876 0.802111 124 131 136
0.786062751327834 0.235000436686992 0.787507279141135 -0.625496 -0.4665329 0.6253814 153 157 167
0.90672002521774 0.219902858182516 0.746170023451943 0.04164289 -0.2481345 -0.9678301 140 147 151
0.813944932971737 0.270311696991783 0.742768755061102 -0.4057313 0.005192935 -0.9139777 107 112 121
0.831300896173016 0.248635815325889 0.743676704194059 0.02522549 -0.196162 -0.980247 124 129 130
0.780185087734712 0.232845986814599 0.776426058812282 -0.4974281 -0.6728715 0.5475483 145 147 150
0.900111706060318 0.274046249732526 0.738156910610047 0.03104744 -0.1751398 -0.984054 149 152 157
0.897595663826232 0.28121542312382 0.736460530327898 0.104727 -0.1115003 -0.9882308 147 151 161
0.76003118786215 0.268288393099413 0.769191967272431 -0.7675289 0.3580223 0.5317137 159 164 169
0.822883412169758 0.27651561755544 0.73856769050506 -0.1713476 0.1180211 -0.978116 145 146 150
0.902010997030266 0.208665188409068 0.768829082006048 0.4967332 -0.6591988 0.5645469 119 121 124
0.866692167696676 0.273408796932974 0.738624747497504 -0.05958913 -0.3671164 -0.9282643 144 145 154
0.809852251625925 0.244338368713588 0.810239384817074 -0.4912032 -0.6685795 0.5583197 112 119 123
0.833986005320196 0.228021525864342 0.746730208364044 0.04625686 -0.07988666 -0.99573 136 137 147
0.925104255130388 0.224652555311606 0.747922113860445 0.2350919 -0.6128568 -0.7544126 120 125 132
0.762859270947359 0.24071333985434 0.767972111128303 -0.6465581 -0.7440641 0.168319 147 151 166
0.835000593525171 0.219138350792345 0.74779406158692 0.02518012 -0.08771221 -0.9958276 179 157 154
0.809300870686283 0.241984258477674 0.806524679998575 -0.4767964 -0.7065486 0.5229286 112 118 120
0.895932548048942 0.203830076690663 0.757983835628161 -0.08465718 -0.8467034 -0.5252872 126 131 144
0.879073132888406 0.204446706451534 0.780618533142048 0.6504762 -0.7059249 -0.2802694 96 102 103
0.791705498093035 0.216079347064241 0.766305397840268 -0.2894584 -0.9096237 0.297991 136 144 155
0.755488130657636 0.245507410470143 0.757188257575505 -0.7370425 -0.6756623 0.01577036 139 144 156
0.792695704250525 0.230687025632326 0.745285604216478 -0.09062053 -0.1716642 -0.9809788 148 153 155
0.915183397875881 0.222047418728928 0.746718190280721 0.07560851 -0.2989362 -0.9512731 127 131 135
0.809088487032606 0.245447065816942 0.744551725973401 0.06012162 0.03059098 -0.9977222 109 107 103
0.89661785607786 0.275549097342613 0.737990009359106 0.009999001 -0.2256478 -0.9741576 135 141 149
0.872650401800472 0.248146270795501 0.745492486220684 -0.07534289 -0.206303 -0.9755832 147 152 154
0.855289154970295 0.194288492755122 0.776975370959594 -0.4578984 -0.8605273 0.2232081 90 95 91
0.767792366743827 0.236005486497781 0.765546692435579 -0.6556736 -0.7383112 0.1580779 136 145 160
0.819885301337579 0.204084118255528 0.765128395468218 -0.2786421 -0.913197 0.2973715 114 120 133
0.895191237318906 0.274578320232359 0.737496951945013 0.02001027 -0.2050129 -0.9785547 137 140 147
0.873637459317959 0.261231126788773 0.739092120507199 0.02821979 -0.3391704 -0.9403017 155 148 149
0.83625174225132 0.207400171695687 0.791578430264588 -0.4575144 -0.7830315 0.4213577 125 132 140
0.77498733938223 0.257319790647956 0.778907834336135 -0.6588778 -0.01298385 0.7521379 127 137 146
0.904509841008496 0.23138386472488 0.742673815756336 0.2452563 -0.3146471 -0.9169769 224 180 171
0.873765629074968 0.21142891315837 0.748274355497309 0.01152762 -0.4088107 -0.9125465 162 167 178
0.869335279847451 0.194193874275362 0.769366153167085 0.1303236 -0.9837781 -0.1232731 125 127 134
0.800513929753724 0.244894757832974 0.74093272615144 0.2325316 -0.02606028 -0.9722397 106 114 113
0.892094375371614 0.21460890124774 0.747708551801337 -0.09835509 -0.2030863 -0.9742085 164 166 174
0.847371856840226 0.199194796995078 0.77448127798843 -0.500773 -0.8525587 0.1495663 96 102 103
0.838885910989461 0.213343232327944 0.748378589584565 0.03204142 -0.06425289 -0.9974191 114 120 125
0.868800525563887 0.206199619845287 0.751374824549986 0.1451692 -0.7475318 -0.6481682 130 134 143
0.78147940311489 0.266835110249231 0.790762230271944 -0.6940211 -0.254871 0.6733316 128 136 140
0.75896785613722 0.268297807830323 0.765002386872167 -0.8257372 0.5637121 -0.01966466 155 158 173
0.955069190573898 0.247584903892259 0.74736745698509 0.880891 0.004837508 -0.4732944 155 155 164
0.912928095943239 0.281478405202699 0.739130537999577 0.07466956 0.07860359 -0.9941056 147 149 157
0.912451377681836 0.234042599698307 0.743104501213391 -0.03339732 -0.2581714 -0.9655217 226 185 184
0.879861695979381 0.206443610097684 0.753017671095906 0.09643564 -0.9067875 -0.4104103 106 113 119
0.793458904609463 0.211724327504514 0.75631687186648 -0.4491605 -0.872475 0.1924633 100 109 108
0.794439799927603 0.236280778927599 0.743457593287178 -0.08219136 -0.3291192 -0.9407046 121 129 132
0.831120289572255 0.232212862081996 0.746038141893727 0.08377151 -0.1431342 -0.9861516 129 134 146
0.778484930341705 0.224603777047524 0.759839165928661 -0.6583839 -0.7372373 0.1516961 107 112 120
0.813575497570455 0.222307750289293 0.790587824095724 -0.3069831 -0.6705493 0.6753703 119 124 133
0.880067762290628 0.237640078737533 0.745775227082129 -0.2297099 -0.2027896 -0.951898 195 183 173
0.829831318992908 0.216973980333516 0.74812568033743 0.05519441 -0.07262196 -0.9958311 139 137 135
0.762578997582599 0.238898944022541 0.750443478290922 -0.753461 -0.6559044 -0.04567058 131 141 157
0.851834148797986 0.2046458509354 0.752604308269177 -0.09879971 -0.3362098 -0.9365904 158 161 170
0.85811214345148 0.194295434248067 0.764404476534701 0.1200907 -0.9379224 -0.3253917 126 131 143
0.808930313095643 0.24990850270727 0.817523769558292 -0.4600445 -0.7175278 0.5229847 118 127 138
0.852485128319144 0.196525333224966 0.782131348089348 -0.4211276 -0.903856 0.07547145 82 91 83
0.947234478275172 0.273702452624189 0.7500091850254 0.8111126 0.07471191 -0.5800987 142 142 146
0.776890252107084 0.25666364568869 0.746208476918808 -0.2804542 0.4828367 -0.8295867 156 158 169
0.948288594977669 0.261291723293938 0.753142161508538 0.8129606 0.2061316 -0.5446144 92 95 91
0.777676702160341 0.237183471957561 0.740891413185179 -0.1929317 -0.184414 -0.9637266 153 158 170
0.851741844525185 0.223825084198483 0.747699888318321 0.1573175 -0.1177546 -0.9805024 190 168 168
0.887203211170561 0.252836152507326 0.743252846712827 0.03415736 -0.08080257 -0.9961447 217 187 184
0.84598259361104 0.231242285110743 0.746488532102532 -0.07363167 -0.1636784 -0.983762 160 146 122
0.930102547674871 0.230656940531843 0.744526562671634 0.1043956 -0.3313891 -0.9377009 163 165 172
0.85129636768241 0.196134238651127 0.769491741288916 -0.5783635 -0.8136635 0.05871448 100 105 107
0.828014484071262 0.256494875623204 0.741433144231861 -0.01146651 -0.2510345 -0.9679102 101 107 101
0.83280282231924 0.212960730443941 0.793153086019776 -0.5346655 -0.6001276 0.5949619 127 134 141
0.860411069453956 0.204360413671336 0.75232993366987 -0.009861588 -0.4812862 -0.8765081 160 158 166
0.78025027614866 0.261240947153323 0.747292936420157 -0.3341158 0.4915394 -0.8042111 150 154 167
0.812186899158323 0.272001547031825 0.743808605047817 -0.2595481 0.06225739 -0.9637213 121 126 131
0.850823034387757 0.24500276047298 0.744380699507183 0.0623433 -0.1002732 -0.9930049 137 137 141
0.938766208937548 0.233620706973806 0.744359000877504 0.1277931 -0.2541282 -0.9586906 166 164 168
0.835363109412506 0.221709735767358 0.802259320306009 -0.5336156 -0.5292935 0.6596232 116 126 143
0.92387468983509 0.285860282949083 0.739176416423219 0.02921334 0.003706034 -0.9995663 147 148 156
0.796157683618946 0.212861464846223 0.747594213737344 -0.1035322 -0.4838202 -0.8690219 155 160 168
0.834722644203333 0.266368237680223 0.737022806622421 0.08065405 -0.3722023 -0.9246407 176 162 156
0.847209128354136 0.249128156723491 0.743697805654372 0.1259069 -0.09400493 -0.9875782 127 131 134
0.751278690163193 0.250022510239551 0.759684644128723 -0.943712 -0.3305936 0.01074773 141 145 156
0.894983644133508 0.254588509861959 0.742146289665718 -0.0993293 -0.2544686 -0.9619665 146 139 125
0.858770281959859 0.193560077441948 0.766920096566354 0.09373115 -0.9773569 -0.1897052 136 141 147
0.855618898455861 0.208873770432783 0.751106122386131 -0.07789584 -0.253593 -0.9641696 130 133 142
0.795964067080304 0.219935526868442 0.776431919843972 -0.3391942 -0.804952 0.486826 173 181 182
0.916044092027726 0.281193331345067 0.738966821637 0.02462731 -0.01141628 -0.9996315 148 150 158
0.765690071480658 0.239365227940807 0.743835305552849 -0.5431971 -0.277625 -0.7923771 156 163 170
0.802855408556563 0.211479418045181 0.763203255496006 -0.3973216 -0.8362892 0.3778304 142 149 157
0.799340258722879 0.256955849623017 0.741336293919483 0.1612859 -0.04489389 -0.9858861 97 102 106
0.757298084696277 0.264536725701481 0.763341556671514 -0.8871447 0.442499 -0.1310295 145 152 162
0.800648728953094 0.245993234098202 0.805136702773506 -0.6375857 -0.6390979 0.4301609 135 144 155
0.893624802108727 0.207365187334822 0.752679458194897 -0.1833274 -0.8220062 -0.5391632 145 152 164
0.84486411731315 0.199560286020906 0.769449401669799 -0.4399827 -0.8938472 0.08632639 92 98 102
0.948938872385601 0.252498836254634 0.747124184790368 0.323258 0.2987375 -0.89792 151 150 157
0.818193508162837 0.23389340707017 0.803306075275863 -0.3926684 -0.734179 0.5538887 107 115 120
0.777019678819633 0.228788939517469 0.767275048904501 -0.6396765 -0.7076255 0.3001335 114 119 135
0.892057406177998 0.2555030965375 0.741928907498153 -0.08621492 -0.2446726 -0.9657651 144 142 150
0.833296254118733 0.22581735542429 0.805593695520294 -0.4819051 -0.6367461 0.6019318 116 121 136
0.915763921905148 0.242239014086879 0.742129417769511 0.04455527 0.1289344 -0.9906517 213 177 163
0.923903022060132 0.280852848690249 0.739568721962335 0.09400532 -0.09421101 -0.9911041 149 149 157
0.83445389058759 0.265349828963368 0.738241056669843 0.09496551 -0.4219061 -0.9016522 148 143 144
0.801445359140912 0.252259979897016 0.742372508502572 0.2579921 -0.01121218 -0.966082 113 115 119
0.796699171912416 0.255700721986812 0.810628979738675 -0.787485 -0.5152404 0.3382227 128 135 147
0.858006916219781 0.251994681904554 0.745104861830055 0.03363394 -0.1884561 -0.9815055 161 148 142
0.831560168060723 0.250736253162818 0.742962466178557 0.03922861 -0.1639935 -0.9856812 121 127 130
0.882297384217044 0.203144812002287 0.782413181176412 0.2742114 -0.5776765 -0.7688289 88 94 94
0.755568394444079 0.254645583614646 0.752421557809677 -0.7018499 0.4432361 -0.5576276 191 194 204
0.902305297202171 0.283903279248038 0.736889368031656 0.1714136 -0.08783878 -0.9812756 150 154 161
0.906725513092014 0.215845985677981 0.747643480350956 0.08921035 -0.3649136 -0.9267575 175 176 184
0.771809955210887 0.259667180932106 0.777225571960507 -0.5660099 -0.01035706 0.8243334 110 116 124
0.819095260056008 0.203321099294883 0.76125362298577 -0.2902198 -0.9186923 0.2679122 139 146 157
0.801844698454033 0.207172908101416 0.751862623154922 -0.3056969 -0.9185879 -0.2504908 138 147 160
0.760214715915347 0.251977403540286 0.7718079503404 -0.5820749 0.1572317 0.7977888 138 142 141
0.769519165002123 0.267342305170064 0.755265711496197 -0.3155441 0.527471 -0.7888005 125 132 149
0.773149022089535 0.266689643028427 0.753566434773949 -0.3157482 0.5340519 -0.7842779 170 173 185
0.775629055755763 0.267392977438431 0.782645900363093 -0.8506572 -0.1500493 0.5038527 131 137 150
0.817732265287157 0.215883629939324 0.747684247679937 0.01777064 -0.08274049 -0.9964126 156 157 164
0.935012946008655 0.251386142396488 0.743820794288269 0.03879083 -0.0217002 -0.9990116 129 133 136
0.85174107723458 0.222224637903317 0.747598432263077 0.1585547 -0.07756612 -0.9842987 202 179 184
0.797825388104664 0.241952504208977 0.741063279072766 0.1493583 -0.2466488 -0.9575263 152 156 162
0.78663574931838 0.257604150269261 0.742651563323033 -0.2801515 0.400893 -0.8722385 130 137 146
0.818966337178511 0.229472671101561 0.799123495412948 -0.3160974 -0.6154792 0.7219888 109 124 127
0.849221729163769 0.205344381725831 0.800827228185767 -0.359623 -0.8543701 0.3751307 146 151 159
0.899520684671052 0.20866849612052 0.749858692715479 0.1066693 -0.7116134 -0.6944264 173 174 179
0.853767197553364 0.20750330153912 0.751417448810296 -0.03593497 -0.2863162 -0.9574611 134 141 148
0.83926905708621 0.278338650748659 0.735841072023103 -0.1556375 -0.002072898 -0.9878121 145 150 156
0.813373173922094 0.272884538289504 0.743610530844525 -0.4068952 0.01979632 -0.9132604 129 137 140
0.838031755794753 0.221550973822448 0.74797805335453 0.003372359 -0.1463757 -0.9892233 133 131 128
0.857733026306096 0.249229315709767 0.74495628044117 0.06753348 -0.1253196 -0.9898153 179 154 143
0.779787219678535 0.261214477621484 0.788007597693009 -0.7395143 -0.2108019 0.6392819 138 143 148
0.909277196191239 0.259477456372992 0.740747331640736 0.06313458 -0.05946844 -0.9962317 134 135 141
0.907710985507169 0.232249890242975 0.743716255592498 0.1341425 -0.2807436 -0.9503625 230 187 173
0.805070036285317 0.205922998182033 0.752571967600848 -0.2782485 -0.9511364 -0.1338551 164 167 180
0.903203532920566 0.217500746146263 0.74696401491962 0.03813447 -0.2191232 -0.9749517 156 156 167
0.832941887846402 0.260557446729014 0.741336556949193 0.06818947 -0.4231501 -0.90349 115 119 117
0.76865383241402 0.235324331059204 0.764926461546852 -0.6570393 -0.7375825 0.1557927 137 143 155
0.84824780225554 0.223605367637543 0.747636032463838 0.100527 -0.1420313 -0.9847443 216 183 178
0.897757385730579 0.21110866271164 0.747871493283976 -0.01856611 -0.420155 -0.9072623 180 183 191
0.88680452707261 0.255322072011154 0.742947576252531 0.01671448 -0.183346 -0.9829063 210 181 169
0.924841058363412 0.249764700408401 0.742877413436679 0.1372909 -0.2743779 -0.9517709 148 122 100
0.820855939773886 0.226901183182874 0.747419866206488 0.07670761 -0.09933081 -0.9920934 163 147 111
0.824925615977091 0.231294726043906 0.804126464262904 -0.4009762 -0.7645482 0.5046623 122 128 139
0.9259318794142 0.226713752563387 0.745885688278188 0.1093705 -0.5693121 -0.814814 169 170 180
0.814580775705409 0.212922327476759 0.779281036442937 -0.3629045 -0.8040068 0.4710342 157 164 171
0.934547909204785 0.250325264289593 0.74390493444457 -0.02100151 -0.03918478 -0.9990112 134 136 139
0.865743033245621 0.192161610276789 0.78599685216111 -0.09583335 -0.9544693 0.282497 137 142 147
0.781729746922988 0.239661921303734 0.783916797804402 -0.604668 -0.239198 0.7597111 142 150 156
