ply
format ascii 1.0
comment File exported by Rhinoceros Version 7.0
element vertex 491
property float x
property float y
property float z
property float nx
property float ny
property float nz
property uchar red
property uchar green
property uchar blue
end_header
1.0198209400856 0.324917977820305 0.764423681769126 -0.2405674 0.9530589 0.1838641 130 135 146
1.06178179131977 0.248317089176227 0.783392392469804 0.1145076 0.3548771 0.927874 125 131 145
0.97441699059857 0.215672959542828 0.785586872420762 -0.01433187 -0.8909621 0.4538514 138 139 155
1.04188315774687 0.247512129487686 0.790394713601857 0.04482915 0.05696148 0.9973694 181 165 164
0.952948036115531 0.275913593789527 0.769185118026033 -0.2852544 -0.9227912 -0.2590103 165 168 180
0.952816176156178 0.307334586781035 0.765641288542367 -0.9503526 -0.2727963 0.1497067 150 155 176
0.990600078236363 0.205092919931251 0.789550381895973 -0.2231146 -0.5203435 0.8242951 135 142 158
1.06804063327696 0.242327518093294 0.778696256084894 0.6423827 0.4003785 0.6534841 150 157 162
1.06995937800247 0.276498271675775 0.781474553099218 0.3381354 0.4116736 0.8462797 152 158 169
1.02910813188387 0.202248315228013 0.791967028100398 0.1650825 0.1890682 0.9679881 145 153 167
1.07825037176508 0.229188565482908 0.76213207583209 0.7256452 0.6212319 0.295821 129 136 144
1.08110786770797 0.260674348001576 0.761286404436529 0.9157382 0.3048833 0.2616673 93 100 102
1.02782725986439 0.322123470952752 0.77328730025724 -0.310166 0.8989071 -0.3094561 133 140 151
1.02275791533137 0.184810724975085 0.781257280716766 0.5774375 -0.5600478 0.5940643 90 95 105
0.978240654476214 0.246750315666619 0.7873209129872 -0.1074349 -0.06343827 0.9921861 101 106 123
1.07575235424376 0.249007087865005 0.768608755236889 0.7147555 0.4660638 0.521449 136 139 146
1.01040313349543 0.282076011224494 0.786907571409671 -0.0379114 -0.0224492 0.9990289 195 157 162
1.00580054984886 0.205700946673766 0.794252281476941 -0.01619301 -0.100661 0.994789 145 150 171
0.977259666155856 0.210977225636372 0.774933938233908 0.08949523 -0.995525 0.03034063 121 127 136
1.08316354213781 0.264588540799104 0.764900737583216 0.8355571 0.2138213 0.5060877 110 113 120
0.979509108344344 0.28446457787666 0.783691138993073 -0.1139111 -0.1099106 0.9873925 186 160 150
1.01763552740058 0.325426775107892 0.776777931947499 -0.6987433 0.6977274 0.1579057 108 111 125
1.08125922516327 0.229566447107355 0.756048423123711 0.6334335 0.6174772 0.4663517 109 119 123
1.03470960988843 0.314699923856514 0.771546408669483 0.3606786 0.9127913 0.1916327 89 101 109
0.985248381631202 0.20446484087371 0.762849696298398 -0.01829647 -0.9984537 0.05249258 132 136 156
0.96527446180945 0.255357290636041 0.783255906018304 -0.2129658 -0.1803409 0.9602722 142 146 162
0.951838806010693 0.282270444295807 0.759917794076523 -0.2849707 -0.9585271 -0.004174161 161 165 177
1.06781521677044 0.18387682345548 0.770229996910265 0.8511779 0.2562478 0.4580756 88 94 94
1.03650274662092 0.232945322860913 0.788696492895634 0.1451768 0.03617359 0.9887443 123 114 108
1.03572951377733 0.313236539340936 0.765147482543982 0.1973205 0.9666057 0.1635178 102 114 122
1.03175685132808 0.282535115301713 0.787516948806231 0.04707976 -0.06634574 0.9966854 217 177 173
1.01742354376604 0.302746494554519 0.78823543846535 -0.03988216 0.094634 0.9947129 210 174 162
1.06145071340029 0.187240899455732 0.781229144108636 0.4136458 0.2780735 0.8669327 175 180 190
0.959391148203118 0.317454903538506 0.763846738040799 -0.7947583 -0.2507777 -0.5526932 133 141 154
1.0495234627678 0.255109424048273 0.788824297440254 0.1041879 0.2861957 0.9524899 212 180 170
1.0585291958817 0.18166495033149 0.780797846107534 0.529606 -0.296298 0.7948112 175 177 187
1.06342209003591 0.289591713225934 0.782950240837178 0.1445081 0.7353024 0.6621538 125 135 146
1.02233162333303 0.191471318671238 0.789871467918649 0.3192914 -0.1914395 0.9281185 100 109 115
0.960630162270057 0.297123168002143 0.780772462993347 -0.3610269 -0.1481843 0.9207068 167 170 185
1.03491653041601 0.314507332649271 0.776443146238399 0.02438521 0.8771351 -0.4796242 97 103 112
1.0690444303591 0.220325477448208 0.77074223752565 0.5843375 0.4952683 0.6428522 108 117 119
1.06395985024821 0.20416208850765 0.773010426032357 0.8228197 0.5575143 0.1102072 92 99 98
0.96568204368409 0.275174318526075 0.782077098267498 -0.2566816 0.003293441 0.9664904 109 115 135
0.984786580365594 0.204650650252337 0.757111680932699 -0.04320131 -0.9874223 -0.152088 128 131 144
1.0030086756748 0.191865520620486 0.781264987019151 0.1166734 -0.993013 -0.01767701 99 107 115
1.04997616002413 0.25978555402755 0.787349249545961 -0.00303151 0.3132688 0.9496596 207 179 187
1.08130249170715 0.252332731362447 0.758343284033282 0.6498107 0.6397045 0.4105169 92 98 100
1.00746537824623 0.290358069243033 0.787281514614777 -0.02259818 -0.1180967 0.9927449 118 123 138
0.975361503197701 0.314369850823887 0.781681879670087 -0.3464544 -0.1191786 0.9304654 126 139 152
1.06607580821577 0.184788762535708 0.776216968561051 0.8235357 0.4898316 0.2861012 100 106 111
1.02470903284376 0.324311298731123 0.777541601108327 -0.4153674 0.9079163 0.05619555 128 136 144
0.984188089980096 0.209120542821354 0.787518767208172 0.02486089 -0.7412949 0.6707189 127 134 147
0.98039175603432 0.299703867258671 0.784132499585604 -0.1092414 -0.1149088 0.9873511 138 136 151
0.969862214172843 0.294842370830454 0.782645774010358 -0.1123744 -0.125527 0.9857053 121 128 146
0.98963429119791 0.301006404821465 0.785099767410489 -0.05000942 -0.1710788 0.9839873 211 175 178
0.981465798228095 0.254086266059863 0.788065011092026 -0.1360545 -0.009475987 0.990656 143 148 164
0.999895077448821 0.213272986822438 0.794701793131683 -0.02388694 -0.03247443 0.9991871 175 177 190
0.9804361462979 0.234046069011138 0.790750099869325 -0.2923378 -0.05802037 0.9545534 193 197 211
1.01535551490765 0.263318465109055 0.787379830705545 -0.113987 0.0549177 0.9919632 203 168 172
1.05815650712283 0.190397527501922 0.784238210563647 0.3953201 0.1742645 0.9018614 158 162 177
1.07885824817494 0.271165010618595 0.771996214558562 0.6294435 0.3347857 0.7012271 108 113 116
1.06777659656141 0.286056090894562 0.763814573339451 -0.1565969 0.9761111 -0.1506139 133 142 154
1.06168605863623 0.293681555297214 0.778448340940989 0.02241514 0.9861163 -0.1645365 115 124 134
1.07608995009003 0.271481356786808 0.775098302869042 0.615973 0.3384378 0.7113629 103 108 114
1.05540349032864 0.20848807979221 0.781366691023019 0.1711414 0.2696312 0.9476337 132 135 148
1.05997769640198 0.28990871589766 0.757973504958305 -0.1496 0.9639484 -0.2200529 132 139 151
1.03991869315635 0.21713501161027 0.787767231059688 0.05447182 0.1735225 0.9833223 213 174 163
1.06727316752169 0.23408585897958 0.77815704886543 0.5405404 0.5165654 0.6640605 103 115 121
1.05822437073063 0.203713488473646 0.78386788677307 -0.1717079 0.4315227 0.8856097 122 130 148
0.977374509588052 0.211187429086557 0.779782637908532 0.1017139 -0.9916449 0.07933925 119 123 135
0.999880848104876 0.23500663238983 0.792753556327151 0.007010041 0.1570278 0.9875693 157 163 175
0.993521137620983 0.224391987572656 0.793067242409878 -0.08933388 0.09154551 0.9917857 110 120 133
1.0451230725032 0.298571195007156 0.78735963015706 0.06857405 0.2139174 0.9744419 120 129 145
0.96487875894851 0.246432145653022 0.764125676249592 -0.5042944 -0.7917451 -0.3447127 159 163 177
0.975624101804137 0.220648531293089 0.789351989679576 -0.02160054 -0.3982133 0.9170385 183 182 204
0.996463768592314 0.295568907601387 0.785938800341718 -0.1444177 -0.1604401 0.9764233 122 127 145
1.02004475184331 0.179908646655846 0.763632598821503 0.5005137 -0.8437383 -0.1938856 121 123 131
0.971361685213668 0.220981895127698 0.762120675188809 -0.5302887 -0.6916103 -0.4903764 152 153 169
0.999662637109981 0.207912240090691 0.794189288226422 -0.0260941 -0.2187643 0.9754288 175 177 195
1.04582281239187 0.269379975808911 0.786018011818515 -0.0164645 0.0578805 0.9981877 125 132 149
1.00924449132114 0.204874722296555 0.79423267062836 0.00745692 -0.07015697 0.9975081 140 149 167
0.995522052236471 0.197608667303431 0.778797472859603 0.04077314 -0.9974834 -0.05800423 130 134 146
1.05465236922084 0.266472448876672 0.784903940569699 0.08571303 0.1154084 0.9896131 141 151 168
1.04877451408372 0.300661899317662 0.766717131464197 -0.1914038 0.9618213 -0.1956126 118 124 136
1.06784321294192 0.269686358577797 0.781667323080263 0.4950251 0.2809736 0.8221946 107 112 122
0.97563034153297 0.212376624353057 0.775102136260134 -0.04907582 -0.998576 0.02091822 123 126 140
1.06298596673899 0.244184119234795 0.783808166508835 0.3634485 0.349027 0.8637623 133 141 152
0.996869226731773 0.317227541666417 0.784386026207831 -0.2001746 0.08486486 0.9760779 128 137 157
0.954327290884164 0.271667759455805 0.772164883900268 -0.4122699 -0.8452501 -0.3399793 161 163 174
1.04055729586816 0.182956952054755 0.783699420882674 0.2854252 -0.4746112 0.8326324 123 126 138
0.969471541512782 0.264276498049771 0.785217863868123 -0.1589953 -0.1385483 0.9775095 115 124 144
0.996700461560661 0.314585739789903 0.785004841105582 -0.1623794 0.04516101 0.9856943 136 144 161
0.968315108166334 0.326944788398451 0.768439669503376 -0.8426805 -0.05355915 0.5357434 135 144 162
1.0653348148255 0.272443228261397 0.783934520744098 0.2766524 0.1874018 0.94252 135 147 159
1.03829713799563 0.284534884016646 0.78727428504483 0.1388715 0.03179929 0.9897997 105 108 121
0.975506002344109 0.212513948268039 0.773489247083819 0.02406543 -0.9982811 -0.05343942 115 120 129
1.05624854972059 0.205429285049291 0.783107909087549 -0.1219336 0.4017141 0.9076111 122 129 145
1.07675456818493 0.21508664799541 0.761634188830399 0.5373379 0.4972315 0.6811966 141 147 154
0.953167219046512 0.275818148493467 0.76840903729518 -0.2980035 -0.9039533 -0.3066958 163 166 178
1.02827819341224 0.289930721307547 0.788961795144201 -0.02651662 -0.1702129 0.9850505 163 165 181
1.00126247911059 0.248511111947931 0.789887730519982 -0.2298165 0.06733428 0.9709019 165 168 184
1.05769481416727 0.268240298483074 0.785221232441912 0.1077504 0.07304812 0.9914907 100 107 124
0.966224613152473 0.240838610123378 0.785350184848355 -0.4620906 -0.4650414 0.7551216 121 130 153
1.0461720444413 0.185538297575647 0.785645079426378 0.2141475 -0.1687959 0.9621064 166 166 180
1.07960733096434 0.239248160474378 0.760037153762221 0.6007307 0.6531602 0.460982 105 113 116
0.979948451689428 0.308746063092029 0.783642601970941 -0.238393 -0.03191594 0.9706442 113 124 143
1.01865083238672 0.24916369937267 0.789183745560154 -0.1649558 0.0263974 0.9859477 199 158 129
1.04986327459638 0.207292987341512 0.784001366472021 0.1421916 0.2207779 0.9649035 148 147 164
1.07410019466862 0.183473767309197 0.762602571977914 0.3887091 0.4858604 0.7828441 97 104 109
1.04145152919027 0.309926962487165 0.779069329240508 0.01586262 0.9599871 -0.2795947 112 123 134
1.04109519536499 0.200874701978279 0.788362942236607 0.2047697 0.2289777 0.9516504 159 162 179
0.992198059147022 0.27721507750609 0.785823048001643 -0.08043354 -0.01652589 0.996623 118 124 141
1.0092654949263 0.234227180655065 0.790663479463049 -0.1350766 0.1108858 0.9846109 191 165 174
1.02999245213578 0.175518725665196 0.772047471381922 0.5993522 -0.8004452 -0.008027714 114 120 128
0.989972539486491 0.203283421663348 0.788856593858529 -0.1331496 -0.7437948 0.6550118 150 156 170
0.976083424198316 0.237396548372026 0.788442570105871 -0.2552671 -0.0329898 0.9663076 119 128 143
0.992684082431224 0.199967147660924 0.771018230235891 0.05644153 -0.9983535 0.01023187 108 111 123
0.970833370048432 0.218170654326167 0.7649907471748 -0.2339557 -0.9389919 -0.252109 141 147 159
1.06376411035586 0.253847473273554 0.78221416508452 0.3172547 0.2598084 0.9120576 135 141 157
1.04384105812091 0.195393423894383 0.786951985146647 0.2334007 0.1300725 0.9636416 98 101 113
1.07626017584571 0.22366134688596 0.766088491882831 0.7383954 0.3325397 0.5866767 124 128 138
1.02868502880033 0.321025657799785 0.783768584113671 -0.2987776 0.7290528 0.6158035 95 105 113
1.01493420823899 0.181488111408401 0.778769444523064 0.1605809 -0.9323924 0.3238183 133 138 145
0.965154928675818 0.225742895161448 0.781572520330453 -0.5777397 -0.8148296 0.04764093 168 170 183
0.986190379696585 0.311065923448777 0.784668275529336 -0.2376266 0.01624225 0.9712208 146 155 170
1.04732977548724 0.195010989890558 0.785762226029286 0.04595186 0.05454241 0.9974535 142 148 168
1.05531306961602 0.201348708805587 0.785447965073056 -0.1458742 0.2247183 0.963443 150 156 172
0.977135556833745 0.252747122513514 0.788037636332314 -0.2030431 -0.03191918 0.9786494 121 127 149
1.03477296204152 0.223748526837294 0.788071904492044 0.1460223 0.09252497 0.984945 105 106 114
0.967548656260672 0.318348747455906 0.773875755459169 -0.7551515 -0.02048473 0.6552302 93 102 117
0.992823954971364 0.198757852409193 0.76532078301406 0.04652317 -0.8892917 0.454968 147 155 164
1.01795641005046 0.258156470400037 0.788382121905625 -0.1288511 0.09760173 0.9868492 135 126 138
1.00459647350552 0.190321221352521 0.77518954864786 0.09481314 -0.9954122 0.01285027 105 105 112
0.962610836187947 0.246496526059983 0.77888731164336 -0.4109564 -0.889589 0.1993644 186 191 204
1.06844121133632 0.236849879904156 0.777349268782934 0.5385892 0.4375553 0.7200465 147 153 163
1.07477904316999 0.193069536055347 0.764145649629568 0.3809194 0.1650203 0.909763 76 86 89
0.968625235932566 0.220872623239215 0.772626802113598 -0.227669 -0.9726353 -0.04634089 171 176 185
1.07108696473411 0.28577445829467 0.780192752080485 0.01241134 0.9257743 0.3778729 112 124 140
1.01955891159518 0.325072630157341 0.768604360361519 -0.3501983 0.9361915 0.03010978 95 104 113
1.07768876108729 0.253438730525634 0.767131936706479 0.7307805 0.5130901 0.4502203 112 118 120
1.0008454778011 0.193087297885104 0.764226691733133 0.229402 -0.9247906 0.3035409 112 117 124
0.96192291631783 0.316060610428335 0.772115599959581 -0.6441342 -0.1449647 0.7510502 139 146 165
1.01105473742595 0.198230745446244 0.793680869071163 0.1591268 -0.124131 0.9794234 148 152 167
0.978501801009038 0.211809290728335 0.764263400409925 0.02346917 -0.998832 -0.04223614 134 137 154
1.04729705649593 0.187491925995595 0.78551520363701 0.1776333 -0.0633608 0.9820549 138 146 162
1.01121291956131 0.185772323396621 0.779843176920942 0.2509974 -0.8883812 0.3844205 161 161 172
0.962381485042738 0.302693420113387 0.779486759658948 -0.6369358 -0.04139714 0.7698045 154 162 185
0.999046206346101 0.329574895634699 0.776981190281222 -0.3560398 0.9139836 0.1946014 95 103 114
0.958568044893196 0.292156050509468 0.780005882122004 -0.2464519 -0.1875258 0.9508394 144 149 169
0.99267266434315 0.200297852555248 0.775118081065273 0.1251102 -0.9921417 -0.001499194 104 110 119
0.963379897192859 0.282415888287256 0.780746063610617 -0.1466045 -0.1034498 0.9837709 113 117 136
1.02765016639056 0.275461865557584 0.787248794894999 -0.01793586 -0.03819717 0.9991093 141 147 160
0.963356303372865 0.257696373727094 0.761926610450621 -0.4719845 -0.8390135 -0.2707157 151 155 165
1.03581266632571 0.314333579142681 0.763107271748325 0.1482046 0.9868912 0.06388475 120 128 137
1.0696035435624 0.245598706362487 0.77684569450922 0.5470769 0.777159 0.3110158 140 147 152
1.02061028532469 0.209914392339191 0.792366478629594 -0.004451456 0.1542501 0.9880218 95 104 115
1.02645424955152 0.323389582913866 0.775379716475738 -0.3349686 0.9339697 -0.1244853 122 130 140
1.06362351711968 0.287278257367853 0.758711194161035 -0.03333033 0.9179764 -0.3952321 94 108 116
0.965726692270234 0.233445226031847 0.770289281044048 -0.4255363 -0.7897702 -0.441794 143 144 162
0.956225025592027 0.271929816822348 0.767461794790651 -0.2966053 -0.896115 -0.3301564 160 161 174
1.06320839031155 0.200323551536506 0.769471782052061 0.4835508 0.6529841 0.5829154 101 110 108
1.03060562938114 0.178879047574315 0.761459617456117 0.5575878 -0.7681956 -0.3145972 111 115 116
1.02286398353028 0.178005652273208 0.776648180106421 0.3499228 -0.6706061 0.6540959 149 150 162
0.965877395645424 0.247691056804693 0.76042421033204 -0.5332438 -0.833229 -0.1462205 141 145 165
1.01772665871094 0.32467302165477 0.778607874359776 -0.6545262 0.7275459 0.2056026 115 117 137
1.0055486929533 0.188762032485406 0.760995012597183 -0.02915857 -0.9994929 0.01279425 97 101 108
1.06934135994078 0.188026636157049 0.770354419200103 0.5699599 0.7139904 0.4066489 102 107 108
1.01014351756543 0.183574745431226 0.753587931256347 0.2823621 -0.9290771 -0.2389293 162 166 171
1.04516812953301 0.193948130808954 0.785997721352029 0.1169759 0.08170737 0.9897679 101 108 118
1.02480546804571 0.319964689478435 0.785082210755779 -0.3535944 0.3788992 0.855223 122 131 150
0.958891197425434 0.300531610160729 0.777576922632028 -0.7066597 -0.08622652 0.7022799 142 150 172
0.985925335527442 0.329671618501172 0.780785145674721 -0.314954 -8.255389E-05 0.9491069 99 113 133
0.998854724226152 0.222292616062349 0.793389771522643 -0.1515896 0.1177105 0.9814096 127 130 153
0.988683118119071 0.299741713453507 0.785135584323889 -0.0606913 -0.1409526 0.9881543 217 178 178
1.01532803963916 0.289665230553744 0.787773308345763 0.02551552 -0.05469063 0.9981773 121 124 142
1.0556081619301 0.175033512553259 0.752127864836372 0.7668861 -0.6344178 0.0969523 169 169 179
1.06745449018563 0.197352036604904 0.768219478446908 0.3497486 0.6082348 0.7125492 104 111 115
1.06543024792135 0.25113504064242 0.781590375163989 0.2504736 0.4674646 0.8477853 145 157 168
1.07245719758219 0.233295929217033 0.772162953184433 0.6533151 0.4245494 0.626847 146 151 159
1.04066581259853 0.211936920436433 0.787654867840974 0.1321929 0.2075332 0.9692549 107 108 104
0.981759114834805 0.209191948321071 0.756292825733131 -0.07010183 -0.938747 -0.3374016 117 118 131
0.987390151182085 0.225868938116311 0.79319002407247 -0.2405151 -0.008924262 0.9706044 176 180 201
1.07819943760276 0.227549452460645 0.759499329575593 0.6549283 0.6048951 0.4529579 118 126 133
0.955845386395404 0.273207223848085 0.765015249395782 -0.1597099 -0.9399805 -0.3015451 159 161 171
1.06650746706916 0.224130666980255 0.774232219686106 0.8129888 0.4379851 0.3836902 104 109 115
1.03194021613622 0.268365906954235 0.786827048334891 -0.0120274 0.06424856 0.9978614 122 128 143
1.0123858711026 0.183850263144589 0.77871358974202 0.09316102 -0.9827402 0.159821 141 141 151
1.05183073891248 0.298082024605948 0.785380793349417 0.04108259 0.4804154 0.8760784 172 175 185
1.00292220082409 0.191093521534597 0.765051998982723 0.1258415 -0.988995 0.07779948 103 107 112
0.970898209567877 0.217512826538783 0.767164219463708 -0.1145496 -0.987467 -0.1085696 158 161 172
0.997550185997599 0.24056025104799 0.790234458625517 -0.3475409 0.06896375 0.9351253 127 140 166
1.01238794342501 0.211746483025631 0.793825141412909 0.00450726 0.2082033 0.9780752 151 156 173
1.07651294089503 0.178321332772608 0.761934293694848 0.472971 0.310644 0.8244991 124 129 140
0.994298331915992 0.32475302807801 0.782692988318338 -0.1136512 0.02356864 0.9932411 108 116 129
1.02397245695465 0.322968898164156 0.782679235534286 -0.4501929 0.7321233 0.5111965 149 155 167
0.952691289031831 0.276795715507171 0.777508762425609 -0.5002023 -0.7348102 0.4580957 158 163 181
0.977074201648698 0.335306149468084 0.773418107590715 -0.859867 -0.008002218 0.5104555 142 153 173
1.06846039765555 0.249152649406019 0.780222362721776 0.4853596 0.7514265 0.4469723 98 111 122
1.07855910278152 0.240264024678513 0.76410141981578 0.6032448 0.7116026 0.3601633 91 101 103
1.04795957792442 0.247123294048302 0.789778758351703 0.2149876 0.1328624 0.967537 142 143 155
1.00553929374316 0.228235960956284 0.792470551384949 -0.0820456 0.1399841 0.9867487 124 132 152
1.0725321920181 0.208573057165883 0.765484928267521 0.4381909 0.3977146 0.8061091 95 101 107
1.0706767236245 0.20061224513166 0.765686775958952 0.2569668 0.3333431 0.907111 96 100 100
0.985253913357618 0.268425690445454 0.786456635055358 -0.1989098 0.06549389 0.9778269 137 143 157
0.953267936390751 0.308820395127395 0.766962603292042 -0.9191122 -0.233187 0.3175793 146 153 172
0.968340968913218 0.236642791915062 0.759472978601285 -0.410504 -0.8357968 -0.3645958 170 167 180
1.08023077493052 0.235728656101762 0.758121861511521 0.718433 0.5496241 0.4263419 140 144 152
1.03589380978673 0.311696274049265 0.772388208129929 0.004682536 0.9670266 -0.2546324 104 113 118
0.971938741203575 0.331803443448075 0.769067459285251 -0.9079633 -0.1876268 0.3746983 146 153 175
1.08203865649225 0.183839678835246 0.754601700011896 0.5652221 0.7174149 0.4072343 114 119 122
1.02131643265866 0.178232526082511 0.776002356935904 0.4071317 -0.7049182 0.5808046 162 162 171
1.05891665682729 0.257762762736689 0.784363932236384 0.2550313 0.09817394 0.961936 133 138 152
0.953158660958835 0.285508208759136 0.778955142594549 -0.4261156 -0.3087215 0.8503626 133 142 158
0.987269171227169 0.306702716179022 0.785787153185783 -0.1483289 -0.09955201 0.9839146 161 164 179
0.977639452569201 0.211331594545273 0.781548477955846 0.09894302 -0.9949287 0.01808961 134 136 148
1.00644181947382 0.188724416392649 0.782169889666638 0.1554179 -0.9823804 0.1037979 147 149 163
0.973483868806073 0.313456151960009 0.781624344900884 -0.463526 -0.1260473 0.8770723 144 150 168
0.969799485808977 0.232006946191742 0.762068154738212 -0.4501055 -0.8669999 -0.2138138 129 135 149
0.991066116489486 0.198541596915678 0.757276194243103 -0.01864446 -0.9960784 -0.08648755 103 108 120
1.06446069974808 0.193751825756876 0.772978424500999 0.3014592 0.8804825 0.3658864 103 108 115
1.00578927937565 0.188055983835776 0.768663084644892 0.09192161 -0.9718968 0.2167187 105 109 114
0.976492218450113 0.231065283573052 0.789088842873441 -0.2521375 -0.09578869 0.9629388 150 155 169
1.02542937541588 0.176663306914334 0.769906002173908 0.574482 -0.802978 -0.1587348 144 144 154
0.969803040985671 0.231225961991657 0.761793458743639 -0.4040906 -0.8826115 -0.2402243 133 138 153
1.07331851668007 0.183580196949143 0.764331295988613 0.3988337 0.5118992 0.7608488 105 111 115
1.06415658686981 0.193371318531497 0.777065554481085 0.507529 0.8600972 0.05145048 100 108 117
0.985905599503347 0.245553379616268 0.788598861218824 -0.1739236 0.05958764 0.9829547 111 115 137
0.999551491610852 0.194024952464472 0.770424020429882 0.04468568 -0.9988094 0.01956885 93 98 103
0.969559339214618 0.219884832414711 0.785494003254356 -0.1432452 -0.8915789 0.4296137 167 170 180
0.997430944206188 0.222650005408324 0.792841650987559 -0.129108 0.1206766 0.9842603 113 123 134
1.01057667619225 0.32737213901755 0.769918505467202 -0.3688449 0.9076325 0.2003915 97 107 113
0.990234350500332 0.25626316440532 0.787808730692378 -0.01804499 -0.01012732 0.9997859 159 157 166
1.04666476353835 0.301114036798015 0.762937945512864 -0.1656044 0.975137 -0.1472515 122 133 141
1.03979502184847 0.291095250875988 0.787765020654885 0.1555965 0.00194794 0.9878188 121 129 144
1.04210310872614 0.225229329564608 0.787287389276593 0.1419086 0.06460864 0.9877691 115 121 133
1.06238292375137 0.287233029841118 0.784349941935345 0.1940337 0.4476618 0.8728974 155 160 171
0.996978229099986 0.230620445073424 0.792739642423286 0.01380828 0.03209348 0.9993895 145 152 170
1.02440539941448 0.318575109963677 0.785261579066741 -0.3873012 0.2313133 0.892464 117 126 145
1.04062874005261 0.175883277048207 0.769238947347283 0.8092818 -0.5873691 -0.007770826 102 107 108
1.08041362480797 0.19244264096453 0.754657828061188 0.5707701 0.7173635 0.3995136 155 158 166
1.01493895779482 0.18587251530189 0.786145362204722 0.5141065 -0.777917 0.3613029 123 128 133
1.07250322165485 0.221081464757565 0.766725623987776 0.6665567 0.08119962 0.7410188 84 91 89
1.07355465278198 0.245548295294044 0.770558066222365 0.4459495 0.3153405 0.837669 183 186 191
1.00142069567086 0.192370075154088 0.768878531515408 0.1133957 -0.9935268 0.006772016 98 101 111
0.961474309187158 0.24598126188062 0.778117700964771 -0.4872579 -0.8312963 0.2674437 184 187 204
0.996727364565634 0.319169489473583 0.784082209034847 -0.2306674 0.09442024 0.9684407 119 129 154
1.02001758914278 0.283253792286 0.787469351088417 -0.005042723 -0.05251043 0.9986076 213 176 173
1.06240637228131 0.292125113050759 0.766540785902009 -0.1678931 0.9222452 -0.3482466 137 147 157
1.07805643146018 0.241571320506258 0.762772249101252 0.6538246 0.6602498 0.3695722 91 99 105
1.08043545084548 0.19108140460756 0.756458646795016 0.5122075 0.7303719 0.4518853 111 117 124
1.05499985932246 0.269961636150748 0.78583089590006 0.05895472 0.04434896 0.9972751 159 163 174
0.992429004133045 0.199893409624623 0.778392538397384 0.05830094 -0.9945657 -0.08625591 114 117 127
0.962276345873247 0.265809693413639 0.758463924342481 -0.4769205 -0.827887 -0.2952116 121 128 147
1.07475680315004 0.17280042723149 0.760391331457723 0.7876999 -0.439449 0.4317562 166 166 171
1.03661683436005 0.311803331935516 0.766980581927582 0.1951468 0.976725 0.08902846 89 101 107
1.08069620345144 0.196606099450709 0.755256838732319 0.6262227 0.6484727 0.4328145 136 141 147
1.07236097715216 0.247191564836029 0.771637118988762 0.5615449 0.2597461 0.7856203 139 147 147
1.04952207252191 0.229422134496746 0.785948157667055 0.1829061 0.04930476 0.9818933 145 138 129
0.964221516483091 0.239163224359511 0.770593072916168 -0.4885113 -0.7793272 -0.3924356 163 165 178
1.06613175874882 0.175658305051065 0.750971457912005 0.6152928 -0.7882524 -0.008535604 106 111 111
0.974259837704569 0.257967363858054 0.785768372981806 -0.3739438 -0.1220402 0.9193869 109 117 132
1.00538697004003 0.328327730057327 0.777681582920302 -0.5083227 0.8576938 0.07726166 99 105 115
1.04751354317447 0.290804615047808 0.786897048075819 0.07892904 0.03840338 0.9961402 136 144 160
1.00750638278181 0.295334665769168 0.787795562958203 -0.06744329 -0.1225297 0.9901707 127 135 154
1.01028582684417 0.183412732966913 0.75775864178367 0.139864 -0.9899419 -0.02128586 172 174 182
0.977047855790261 0.215042606225407 0.787108260595872 0.03471501 -0.7737395 0.632552 146 151 162
0.975093834633089 0.214142533292751 0.759409593974353 -0.08244316 -0.9746262 -0.2081032 176 176 186
0.996780488591889 0.307549838986843 0.786863003287508 -0.1564105 0.09284356 0.9833188 156 159 167
1.00144669123865 0.229716419129847 0.79204726319022 0.009053138 0.1224247 0.9924365 120 127 145
1.001416302287 0.21129817460242 0.794559625930509 0.000564042 -0.08481491 0.9963965 164 171 180
1.02914519704709 0.298594104553645 0.789792303449761 -0.1501416 -0.03673841 0.9879817 159 162 182
1.00795105947626 0.315452327306195 0.784559990107811 -0.1789919 0.1783784 0.9675449 111 121 138
1.06046747773499 0.263804535621323 0.784254137283883 0.1594005 0.09398729 0.9827298 129 133 146
1.04923389975124 0.175824141010888 0.762918612355123 0.70295 -0.7086228 0.06095112 159 161 165
1.01620614468075 0.178980214391803 0.769807478838711 0.2202975 -0.9738638 -0.05530154 101 104 116
0.958301560249352 0.271482432452666 0.762394174003359 -0.3259423 -0.8896493 -0.3198213 143 147 163
1.02140182892541 0.312795301603205 0.786957309784681 -0.2213861 0.06632877 0.9729279 146 151 169
1.04732580093891 0.175278956646174 0.75376917375352 0.6439829 -0.7605397 0.08285813 117 120 128
1.07805655396641 0.250197877670155 0.764972596926236 0.7465981 0.4771634 0.46358 122 130 133
1.00290218336129 0.315489215248737 0.784588999150268 -0.1988972 0.1155012 0.9731903 131 138 160
0.993542445853907 0.330505625684213 0.782396783594006 -0.2135193 0.5322036 0.8192489 120 130 145
1.01678655146006 0.266397032411303 0.78705801303672 -0.07848499 0.0007462208 0.996915 208 173 178
0.972373397140477 0.333753054382211 0.767775604243865 -0.9420624 -0.1077034 0.3176764 137 147 167
1.05047634837408 0.222619326485489 0.785434907037728 0.2174319 0.2402874 0.9460366 206 171 164
1.04941152973006 0.231910978681065 0.786545095230002 0.1662672 0.03486349 0.9854642 145 136 145
1.0037236401208 0.258509309696846 0.787830436213563 -0.1235424 0.1065482 0.9866026 113 123 135
1.02567174379691 0.289814030389248 0.787960879224222 -0.07227703 -0.1570847 0.9849368 142 151 165
1.03369252138934 0.288172425780552 0.788420001690963 0.1492908 -0.0449814 0.9877697 97 107 111
1.0643770547848 0.202831950707836 0.779300236611571 0.6292209 0.7517153 0.1974972 88 101 106
1.00775263216206 0.270081507648046 0.787131476751128 -0.02965373 -0.005865244 0.999543 117 119 132
0.980118205895272 0.225738433557802 0.791232669398315 -0.2627207 -0.141966 0.9543707 129 140 160
1.07066291690957 0.212020591025867 0.766079703096844 0.4384048 0.546569 0.7134869 89 97 97
1.03513931543987 0.313248103482994 0.77282701115422 -0.0503995 0.9768754 -0.2077843 91 105 113
1.05771742749714 0.297746861963136 0.782281254906801 -0.04727858 0.9602556 0.2750888 120 132 148
1.08323391990097 0.268733698220299 0.767118126374734 0.6156741 0.5465883 0.5676149 124 124 130
1.07876753604084 0.191523186085188 0.757652788249492 0.5121031 0.7268906 0.457581 117 124 132
0.974749902495396 0.337024096373537 0.767524912968787 -0.981364 0.06506123 0.1808084 154 158 173
1.0561033506284 0.226082649666125 0.783498321928315 0.3664318 0.0189039 0.9302529 208 171 156
0.993857730835155 0.197872090270493 0.765735997733187 0.05904739 -0.8676847 0.4935957 148 156 169
1.03740143149796 0.263445903688133 0.787092742902053 -0.1248989 0.1640103 0.9785197 150 144 156
1.01353050905943 0.182054606593349 0.758245791231358 0.4669911 -0.8693 -0.1619777 129 133 142
1.04028774721803 0.26714340708409 0.786497410720214 -0.08647344 0.06974039 0.9938102 128 136 151
1.06995882758568 0.244359191057342 0.772583585276107 0.4941026 0.7394395 0.4572656 108 115 125
1.06416882174168 0.199448601131233 0.769149968426777 0.3595253 0.6965067 0.6209831 96 105 106
1.01577980123581 0.181653537824286 0.779932328199467 0.2779446 -0.7448937 0.6065312 168 167 179
1.04221129462527 0.305488829088554 0.768074380382781 -0.1690146 0.9568642 -0.2363155 97 104 112
1.06972950291763 0.215953788521049 0.767768859683975 0.7008423 0.5369765 0.4695491 130 136 141
1.04660197226393 0.301938294045567 0.764636911363293 -0.2103334 0.9575388 -0.1971782 103 113 122
1.07433585728615 0.279758346230639 0.762220367873024 -0.02332664 0.9620101 -0.2720155 111 124 130
1.03161173078163 0.274854974332082 0.787207285502616 0.05484496 -0.01854624 0.9983226 141 144 159
1.0089099467687 0.314141180081871 0.785419023433015 -0.1994494 0.1900813 0.9612955 117 123 141
1.06795081053832 0.223206330448444 0.771966330603769 0.6209918 0.5235328 0.5833375 133 139 143
1.02656652599836 0.22094447734802 0.790014286293725 0.1247062 0.1889233 0.9740412 105 110 116
0.952542432372749 0.277325558026735 0.769805562698174 -0.3917921 -0.899154 -0.1949897 165 170 181
1.03687256236224 0.311619983413256 0.758684749621777 0.1861566 0.9537756 -0.2359189 106 112 121
1.04071788570266 0.184020565931151 0.784371117761525 0.2797487 -0.3891525 0.877668 123 128 138
1.00266849976031 0.22486401168469 0.792577195192614 -0.1073072 0.1427075 0.9839308 123 129 149
0.987256812713488 0.204218561987282 0.76863873825978 0.2563555 -0.9060237 0.3367535 109 115 123
1.05002904528433 0.2769157898997 0.785890126340488 0.04975893 -0.02444473 0.9984621 119 124 141
0.97264940468632 0.30683242074927 0.782844815691953 -0.3000109 -0.1244031 0.9457892 164 166 183
1.0675626146651 0.286204932849627 0.761783791482328 -0.1612865 0.9065852 -0.3899871 131 140 146
1.02607574856602 0.3113397671353 0.786769525827973 -0.1126804 0.09292823 0.9892762 121 127 148
1.03380688716669 0.221624615966863 0.788057061029186 0.1131862 0.1252002 0.985654 137 131 134
1.02699387739652 0.175858267563928 0.772356757855461 0.5367203 -0.8403043 0.0762887 119 124 132
1.00233610209971 0.244718761755284 0.790531583822294 -0.1721383 0.1028209 0.9796919 146 148 165
1.04950937970068 0.176030815233863 0.77353666193325 0.729437 -0.6832074 0.03390091 131 133 136
0.963614649960639 0.25661659907908 0.762214426454389 -0.5357641 -0.8091644 -0.241267 155 159 172
0.976084839442955 0.212026276272556 0.765646191841156 0.06794582 -0.9926057 -0.1005847 141 146 157
1.04053570298946 0.183456402394894 0.7834538795796 0.2627321 -0.3970479 0.8793889 121 124 134
1.06459237175533 0.276601159865291 0.783972456977706 0.2095742 0.2709895 0.939491 191 193 203
1.06859817454366 0.233020517287461 0.776206851148433 0.5713633 0.4635912 0.6772202 150 154 162
1.07539809658121 0.275053958998684 0.776535794864589 0.5648457 0.3390934 0.7523065 99 110 116
1.0254561902897 0.254778718230744 0.788392578622411 -0.1526783 0.07992161 0.9850391 140 147 162
1.01870709003768 0.326968587324199 0.762914662594737 -0.1436992 0.9209849 0.3621289 82 95 105
1.00396195251629 0.190136363123004 0.760296326273283 0.2598179 -0.9522913 0.1601124 110 116 125
1.05121857574238 0.297611670803946 0.758987041384011 -0.06006603 0.9900064 -0.1275902 126 138 149
1.0690962088292 0.238328462490582 0.776710486192026 0.5362073 0.4106247 0.7374748 128 137 141
0.995643031112125 0.246001766389011 0.789114895225803 -0.2511463 -0.03323379 0.9673784 123 133 152
1.04861169955724 0.302741341376884 0.770563115741274 -0.1840868 0.9447685 -0.271154 98 107 114
0.969037877452031 0.234567353654943 0.760206692855455 -0.3852698 -0.8651895 -0.3209584 137 139 152
1.01049761016666 0.333691835475411 0.758079009006067 -0.2234621 0.9741576 0.03288911 133 140 152
1.00043787538377 0.296110958753407 0.787123190053455 -0.1172044 -0.126057 0.985075 141 143 162
1.04616521467932 0.176239449422505 0.771184053073535 0.7027422 -0.7076606 -0.07327879 126 132 132
1.04747177633661 0.250545657594155 0.789649403204705 0.1251666 0.1655255 0.9782304 215 177 171
1.06381808776812 0.199090344839849 0.777591613050208 0.6431494 0.7261066 -0.2431624 92 98 101
1.08212992744569 0.180698166774448 0.75618589818642 0.5652977 0.6946295 0.4448913 141 144 156
0.982879636138054 0.227032638056942 0.791006823767205 -0.3138637 -0.08729786 0.9454463 119 128 159
0.975023285617789 0.213327497129187 0.779649944671363 -0.003396422 -0.9981801 0.06020801 114 119 133
1.0786885799132 0.257416335124049 0.7668656561474 0.789802 0.4479427 0.4189991 103 110 115
1.01335100436276 0.326455312560797 0.771079724888901 -0.4721406 0.8680428 0.1535742 113 123 130
1.05926091914172 0.270599949680929 0.785122183898264 0.1252327 0.05977497 0.990325 98 109 122
1.02004784836209 0.211350110195172 0.792167594597324 0.02684473 0.1647472 0.9859704 107 111 134
0.964705105217911 0.270464570588718 0.782204005343976 -0.3113121 0.03138443 0.9497893 102 111 130
0.981809174637087 0.207145350266043 0.76952725363045 0.1177852 -0.9901453 0.07575525 127 131 145
1.07200318478623 0.217103865281093 0.764760427821785 0.5154295 0.2632862 0.8154832 93 106 100
1.00537555364769 0.211049414043819 0.794716196541788 -0.006704019 -0.03313233 0.9994285 171 174 189
0.950172293464797 0.296079987958595 0.771335284612116 -0.9403934 -0.2611075 0.2179063 138 148 172
0.975900212999806 0.296943563486744 0.783343608906757 -0.1708683 -0.1190464 0.9780756 123 129 151
1.05123026908676 0.20828318674554 0.783431213116127 0.1615854 0.170688 0.9719855 125 126 138
0.972307047179801 0.223610292683555 0.789327883773883 -0.2632445 -0.3985993 0.8785334 184 188 203
1.06122104171268 0.287341664120937 0.755953923433587 0.1346979 0.8732167 -0.4683471 113 118 123
0.973313965154529 0.23526521531549 0.788793844910629 -0.3017687 -0.09862344 0.9482664 145 153 171
0.985171103527724 0.263979126672906 0.787301436076791 -0.182513 0.05797942 0.9814924 124 131 148
0.968283245614122 0.25484992320218 0.783710250376328 -0.398855 -0.1439577 0.9056439 122 133 157
1.07843160546296 0.229413875294039 0.760408713533508 0.7047609 0.616274 0.3514519 108 115 116
1.01312935206917 0.241008868238617 0.789750514927981 -0.1618449 0.0953378 0.9822 136 132 147
0.982532505909659 0.225194110685116 0.791885197366683 -0.279184 -0.1592346 0.9469427 146 154 168
1.00639014118159 0.187207173841467 0.754632644324305 0.1957162 -0.9676832 0.1590105 114 119 129
1.02103005612213 0.323675321452445 0.76283688023104 -0.311212 0.9379604 0.1528967 109 120 133
1.03530577698438 0.177414053681318 0.779331403367603 0.339517 -0.6552534 0.6748119 177 178 190
1.07492625178949 0.247177884262016 0.768892533495869 0.6405797 0.4521474 0.6206612 137 142 149
0.999537294771577 0.193801222037856 0.766578401498719 0.1438367 -0.9630983 0.227492 123 129 138
1.01572292485218 0.30981090017161 0.785693411000929 -0.2181388 0.1618199 0.9624083 129 136 156
1.02104609105463 0.323282690479466 0.770587484068911 -0.4504456 0.8664517 -0.2153141 88 99 106
0.995993205910026 0.333092624316069 0.775626440778529 -0.0791072 0.9266078 0.367614 91 99 112
1.03989812278872 0.176205810466049 0.758149417684998 0.4795406 -0.8703463 -0.111974 144 144 151
1.00820746957264 0.19419567922463 0.792496180768058 0.2337109 -0.4729854 0.8495081 151 152 162
1.0724139857222 0.284593015946908 0.775097492493113 -0.0762425 0.9949565 -0.06518199 100 112 120
1.05328664920255 0.245623527793837 0.786399886733451 0.2612432 0.3094447 0.9143282 87 91 99
1.07838146555253 0.222323574724818 0.758463683860812 0.7172619 0.5172806 0.4668577 134 139 147
0.964047005856818 0.234961849502102 0.775766484796442 -0.5733392 -0.8180953 0.04474729 175 176 193
0.993510717825295 0.198794053219041 0.783198126798622 0.08789234 -0.9944326 0.05812663 136 143 156
1.0789219644248 0.175610361254194 0.759247752860886 0.9105566 0.02530861 0.4126089 178 179 183
0.971262416733014 0.227383852072984 0.788683452356512 -0.3710349 -0.2736 0.8873985 163 170 191
0.989394287904976 0.25561276525209 0.787969387045765 -0.01266442 -0.0182704 0.9997529 159 163 175
1.06792397633119 0.194959678847384 0.766974439856933 0.4979649 0.5544037 0.6668339 99 107 107
1.0328774782698 0.177656905506787 0.763155328337748 0.5064557 -0.8088647 -0.2987315 93 96 94
1.04646657514654 0.248581255578402 0.789547234726172 0.1313235 0.1323254 0.9824684 193 169 174
1.00933145722789 0.21458695528038 0.793752128579402 -0.02700608 0.2015422 0.9791074 139 145 165
1.0518531042082 0.298581707286253 0.76663214605533 -0.1176207 0.9747857 -0.1896264 103 114 123
1.03648627956089 0.243315556468653 0.789491398645675 0.08312892 -0.0615651 0.9946353 225 181 185
1.04671835958562 0.303264504719297 0.785826363786324 -0.005608403 0.5919393 0.805963 169 169 182
1.00912026934777 0.186040193151631 0.779090596893259 0.1710859 -0.9796238 0.1051992 142 144 150
1.05773699120019 0.17713900433415 0.775144040984847 0.6205313 -0.6056525 0.4981225 145 146 159
1.08159078997799 0.202745942997546 0.75126214918053 0.8188161 0.5328565 0.2135516 145 148 154
1.00783988250488 0.272774394664036 0.786761692321596 -0.05069501 -0.02705962 0.9983475 136 129 131
0.989512703848802 0.275728253135744 0.786166100940742 -0.1152768 0.02464258 0.9930277 121 131 147
0.965970873360018 0.27341780771928 0.782145473241089 -0.2739411 0.01320564 0.9616558 106 115 133
0.962810458586405 0.235945198301876 0.774374571598781 -0.4979004 -0.8659501 0.0471756 174 173 186
1.03882754472087 0.312889439951405 0.784769761265352 -0.05341558 0.8544489 0.5167822 105 113 126
1.05305070760997 0.298847859328286 0.784498276506514 0.02835738 0.6372861 0.7701054 158 164 178
1.05980380705565 0.175910122577615 0.765795784004798 0.3993922 -0.9086817 -0.1215874 121 121 130
1.03422067348724 0.319012908456244 0.782228371689863 -0.1577903 0.9545253 0.25295 116 124 142
1.02988272456159 0.176255888917385 0.76835705085216 0.62159 -0.7398025 -0.2575233 134 138 143
0.952897357824144 0.299605394239939 0.772393626039407 -0.9087881 -0.2270777 0.3500571 113 124 146
1.06875029117025 0.211093947974056 0.769120099499377 0.5773944 0.327145 0.7480587 101 104 99
1.02885222808325 0.320146643676215 0.769045090208322 -0.2128856 0.9634811 -0.1624315 93 106 114
1.0837546137963 0.252492337738436 0.753777291714982 0.6899468 0.7237755 -0.01106199 138 143 143
1.03498436167322 0.260940993584776 0.78802996107298 -0.1677675 0.1688007 0.9712674 194 169 168
1.0344218543635 0.315166253324668 0.766991521700836 0.336981 0.939474 -0.06190561 115 120 137
1.04040242392539 0.306035662831333 0.764948916121669 -0.01438127 0.9991375 -0.03895494 99 108 114
0.991194975314888 0.332797023932619 0.781841486086933 -0.2639893 0.5049319 0.8217989 145 148 167
1.03271683050795 0.2208534115114 0.788272115425792 0.1069557 0.1501244 0.9828648 134 131 138
1.00165379900351 0.329090639039012 0.780915252889281 -0.5466876 0.7593149 0.3529498 97 104 120
1.02115764501172 0.241303099544376 0.790601989244547 -0.1407609 0.03586475 0.9893938 125 131 151
1.07318278679858 0.236860040048489 0.771845887698973 0.5340598 0.5446228 0.6466576 120 128 135
1.07450875953339 0.27949024772342 0.764717058906926 0.06088931 0.9846536 -0.1635537 116 127 140
1.0566486486045 0.199626398972275 0.785662103601746 -0.02929365 0.1909853 0.9811557 152 158 174
1.07068011523507 0.23470508563384 0.77501609552627 0.6120067 0.403386 0.6802408 148 157 162
1.05057569007909 0.296506441536822 0.756152443296382 -0.1212918 0.9240329 -0.3625624 143 150 161
0.963123862070877 0.242036031265406 0.778207139438558 -0.3994733 -0.8316454 0.3857292 145 154 171
0.98923390650576 0.33573517836195 0.779598152369979 -0.4959995 0.651724 0.5737946 122 133 145
1.06945210560884 0.260063856789579 0.778502338919461 0.5479954 0.2059185 0.8107395 87 94 93
1.02768516219404 0.205523602267887 0.792479647427524 0.03775192 0.1985822 0.9793569 120 130 137
1.07409194569476 0.264213813478716 0.775082937472055 0.5920274 0.4274176 0.6832406 85 91 96
1.05793876914898 0.187221640539925 0.784157735733676 0.3990982 0.151321 0.9043354 119 126 138
1.03650145120222 0.196302452583155 0.789606275534117 0.2562852 0.0609511 0.9646776 163 169 179
1.06387725298176 0.204250779492353 0.775298480110408 0.8192434 0.5733743 0.009059755 101 107 112
1.00143280690523 0.310730649452725 0.785470714098743 -0.1845743 0.06771503 0.9804831 143 147 163
1.01076952581655 0.327449127556457 0.776103199818769 -0.4954647 0.8666282 0.05890868 107 114 125
1.0290533412941 0.195551562957175 0.790959844416882 0.3494639 -0.1555316 0.9239507 136 144 156
1.04403041642719 0.23628694304258 0.787472194613512 0.2398085 -0.05115986 0.9694713 147 116 91
1.04505245150388 0.289878062336513 0.787087025957825 0.1009516 0.004441706 0.9948814 127 137 153
1.0205439898892 0.263722352671095 0.787608884511019 -0.1002521 0.06163169 0.9930514 130 126 141
0.994271982570105 0.314176827971476 0.78461289135961 -0.1734472 0.06062971 0.9829751 155 158 174
0.987716709932908 0.204269235551132 0.77535424430077 0.185135 -0.9807856 -0.06151916 106 112 118
1.01556715712244 0.257089126543174 0.788462201744307 -0.1342806 0.09684412 0.9861997 183 160 159
1.01832967692526 0.211953130938224 0.79230777799335 0.0430364 0.1666765 0.985072 108 114 132
1.01981331522333 0.325174349736923 0.763612870425026 -0.1395758 0.9631059 0.2300994 123 132 139
1.05121755640735 0.297339663756294 0.785879130550471 0.04077825 0.4166886 0.9081342 169 176 187
0.984964859504473 0.284176806300257 0.784337564096494 -0.1809377 -0.09520157 0.978876 119 120 132
1.00552624318299 0.188439431402863 0.764510081374569 -0.01520622 -0.999514 0.02721202 124 126 142
1.01154953489141 0.182963457339216 0.768648583877055 0.02783922 -0.9891278 0.1443996 150 155 168
1.06802571249198 0.172448311535847 0.760175415443513 0.5327758 -0.842783 -0.07659506 130 133 139
1.02250494227784 0.238935169845407 0.790410851768311 0.002653046 0.05589401 0.9984332 132 137 155
1.01308970743814 0.327227675000478 0.767713620397165 -0.3591336 0.8577577 0.3677971 101 113 126
0.994807851256739 0.234514329162931 0.792923841753616 -0.2793221 0.0753698 0.9572349 186 188 210
1.02391521636858 0.279746797120729 0.787048059174735 -0.01023666 -0.03062454 0.9994785 153 150 164
1.06086049149629 0.277011862061827 0.785040883503644 0.1457779 0.1519131 0.9775844 118 133 145
1.02592980501356 0.306197446038923 0.78701243204263 -0.1821877 0.07959563 0.9800369 104 115 135
1.05488424621682 0.214739664437604 0.784382931146886 0.3417943 0.3115977 0.8866135 126 132 140
1.00626813680786 0.263015079834764 0.787027841504677 -0.07630847 0.07074085 0.9945716 104 106 118
1.07862626001637 0.192458533080019 0.759259562462532 0.5565271 0.704893 0.4397766 126 131 137
0.993182704298057 0.198588794350331 0.787814599888122 0.1072437 -0.987707 0.1137265 102 111 124
1.02749302994592 0.184373461865033 0.784564546015166 0.5961872 -0.6815361 0.4243459 101 105 112
1.08028747986561 0.201049123282413 0.755808496825251 0.7701285 0.4851235 0.4141947 101 109 112
1.0396956933555 0.188381250234394 0.787041603561119 0.3170775 -0.1906458 0.9290404 141 145 160
1.0132545763106 0.306870724611048 0.787610340064736 -0.185604 0.1770888 0.9665354 180 170 171
0.992880667394386 0.327615207392839 0.782727197331149 -0.1135781 0.1073248 0.9877152 119 125 145
1.08352440358186 0.179893398987869 0.754501466611895 0.6029633 0.6721386 0.4297267 112 126 123
0.962553369818559 0.249628709431002 0.770845546943126 -0.4792163 -0.850009 -0.2187153 152 155 171
1.06998922240708 0.236669781241644 0.776148461451972 0.5134552 0.4281189 0.7436922 154 157 165
1.0819575003774 0.204451977591221 0.753249374646165 0.8310549 0.4727589 0.2929961 116 126 130
1.01492874268036 0.182794026797334 0.753511622510202 0.5908825 -0.7151531 -0.3733817 99 101 101
0.984858864842455 0.336238796949744 0.766148045728678 -0.6586061 0.6752482 -0.3320813 140 150 161
1.0140069420268 0.19095926520378 0.790468542095049 0.3226651 -0.2991042 0.8980111 136 143 158
0.978129082136535 0.266063692688446 0.786025193186987 -0.1835237 -0.01383128 0.982918 103 113 131
1.05495300349296 0.296188427677814 0.764793756489762 -0.1436884 0.9496357 -0.2784703 113 123 134
0.978526674434717 0.268664341790567 0.786416024965752 -0.2224438 0.05488082 0.9733996 133 142 155
0.989470194271945 0.266848878115091 0.78712437283722 -0.1612807 0.08715963 0.9830523 128 135 154
1.01937659215149 0.230638671057831 0.791323200193007 0.05045027 0.1045279 0.9932415 138 132 149
0.982048276980057 0.209337405827162 0.786303895993408 0.0876689 -0.9158188 0.3919058 158 162 178
1.00466318192072 0.281130964182854 0.787106672003446 -0.03840357 -0.04797959 0.9981098 164 143 137
1.02831597928028 0.17721559213811 0.766808763872627 0.6252363 -0.7235227 -0.2925654 137 141 144
1.06566342180229 0.206229133575025 0.768014077002986 0.5967531 0.3061842 0.7417122 89 94 89
0.989797159732225 0.245814281951791 0.78827813434506 -0.209684 0.05784868 0.9760564 129 138 158
1.00637856865891 0.33013127254607 0.769395181061505 -0.3167736 0.7947881 0.5176546 109 118 124
1.06074125373733 0.210976576450718 0.780601718445127 0.2458169 0.3036155 0.9205388 106 114 122
1.07068451955107 0.260315840433822 0.777864851243822 0.5415207 0.1591718 0.8254815 84 97 98
0.964937370006927 0.231753029469771 0.779399818116489 -0.5332481 -0.843933 -0.05851148 160 163 182
1.04301009610291 0.296856975394443 0.787479753141101 0.1070041 0.1230054 0.9866204 106 115 133
0.998750314426448 0.304911466825716 0.786745251756158 -0.10832 0.05524665 0.9925798 225 183 170
1.06433188838624 0.218510735415016 0.777610798227296 0.6949207 0.5102708 0.5066645 94 99 105
1.05226401440671 0.17923766696685 0.780275669033805 0.6724846 -0.2139133 0.7085235 126 132 138
1.05003625107467 0.290466035321477 0.786446543122775 0.08585578 0.09131492 0.9921141 135 141 160
1.07046460120412 0.28587044539394 0.775894726372074 -0.1322352 0.9907517 -0.03041291 104 115 127
1.00436163347911 0.203721914002865 0.793854589097787 -0.03572979 -0.1039918 0.9939362 137 147 170
1.00512689400868 0.236849040057728 0.790821232995521 0.03345259 0.1924705 0.9807324 119 114 121
1.05848696635408 0.287733379507957 0.785341660293439 0.0702801 0.2330182 0.9699295 146 152 164
1.00574298974157 0.29194658337229 0.787131272343404 -0.04234582 -0.122179 0.9916043 118 125 143
1.05638250633236 0.228098993136948 0.783816885963248 0.3239928 -0.01395237 0.9459566 212 174 166
