ply
format ascii 1.0
comment File exported by Rhinoceros Version 7.0
element vertex 496
property float x
property float y
property float z
property float nx
property float ny
property float nz
property uchar red
property uchar green
property uchar blue
end_header
1.15421532323425 0.213200998884596 0.799240271666964 0.7997636 -0.0753338 0.5955696 94 104 120
1.09595947728822 0.256746149113749 0.800185361941798 -0.5702483 0.2117189 0.7937204 104 109 114
1.0981827119954 0.195714610229962 0.807537292969314 0.2325539 -0.4718916 0.8504334 116 125 149
1.14615602458946 0.181715996454946 0.782193325700292 0.3928528 -0.5499335 0.737048 102 108 127
1.12899906192877 0.324261621465558 0.787559431244936 0.228272 0.9342366 0.2740326 81 88 90
1.10797064713243 0.293935902783345 0.808434336892672 -0.860839 0.1216201 0.4941303 89 95 96
1.11687150430888 0.189692530885747 0.796209981181193 0.4509251 -0.4160653 0.7896557 100 110 122
1.07834209554458 0.183849599870107 0.798361498178469 -0.6264054 -0.7310756 0.2704528 105 110 116
1.16121604208094 0.29356996166435 0.790772673436538 0.760746 -0.107233 0.6401302 108 115 131
1.13601550604425 0.275372829399156 0.820064642273722 0.6882983 0.1641916 0.7066021 107 112 129
1.1734498962995 0.205386892686682 0.775550543476359 0.9897037 0.08828309 0.112662 132 138 157
1.09346869775792 0.269721839816456 0.794234046161988 -0.7260534 0.1043753 0.6796708 95 100 105
1.10540129513668 0.166358133919981 0.7810108020848 0.1342267 -0.7161999 0.6848655 94 104 115
1.13394926428806 0.324168623020085 0.778176518605258 0.2715507 0.9529829 0.134476 98 104 112
1.16157091605321 0.245077196580603 0.792685273641837 0.863714 -0.0883083 0.4961854 93 101 119
1.09361315018167 0.264157521344997 0.795901373178639 -0.5850517 0.3094658 0.7496303 106 111 123
1.12349635603316 0.26791045000238 0.821024483817581 -0.6124732 -0.06672198 0.7876705 167 186 148
1.10084631313096 0.241371864195584 0.808546128546737 -0.6023818 0.2580366 0.7553498 114 119 130
1.0804484517027 0.245336208729193 0.771998160701713 -0.9216176 -0.06403311 -0.3827804 113 116 123
1.14793798975808 0.313403532925609 0.799323392176392 0.7313753 0.5690227 0.3759034 63 80 68
1.15156101019842 0.276948106675074 0.805444366827989 0.7483247 0.2310174 0.6218047 132 138 159
1.1546816520374 0.252805434607035 0.805633866237219 0.7563861 -0.06375743 0.6510107 131 143 162
1.09048768309198 0.196472706779435 0.761944280091748 -0.8546527 -0.4556525 -0.2488967 68 71 60
1.10538978103164 0.22049220516668 0.817199503266783 -0.1342041 0.03531133 0.9903244 173 183 179
1.14097944027329 0.311566986453041 0.810471179842625 0.5215107 0.4128955 0.7466886 147 151 167
1.09170466597424 0.257242222651715 0.797658189928279 -0.5258251 0.2617307 0.8093237 111 115 127
1.08518619809022 0.313819962928311 0.769597022581718 -0.7962606 0.3002078 0.5252088 118 124 139
1.15151872474234 0.288248001820573 0.803151862311556 0.7906028 0.1290052 0.5985858 107 118 132
1.08529949504597 0.220064256587791 0.757757990702475 -0.9368192 0.03758425 -0.3477889 107 110 116
1.10506809913405 0.169525347010215 0.783948700928377 0.3463014 -0.6073326 0.7149982 82 93 101
1.15778542347214 0.241419386350246 0.798563473716466 0.8006519 -0.1059833 0.5896813 113 120 149
1.10402971218828 0.332994624322317 0.793144553518574 -0.3576174 0.810993 0.4630338 137 144 153
1.1152260850682 0.176809561224389 0.789965958149728 0.2204997 -0.8468628 0.4839455 87 96 108
1.08114624969659 0.23592608770615 0.769808031049162 -0.9283499 0.02284577 -0.3710047 113 118 119
1.16775530157024 0.238088721691094 0.77208639218975 0.9798601 -0.000556589 0.1996847 126 132 149
1.09431000782956 0.292020448930867 0.790360160705671 -0.7891008 0.1284406 0.6006854 86 90 97
1.09038190247857 0.320960300741208 0.779207788869278 -0.8936656 0.1208647 0.43215 91 96 101
1.15928663771808 0.300679992088782 0.793389407402222 0.7290025 0.1655221 0.6641971 154 162 177
1.15840515117299 0.210558788285045 0.794440640121803 0.650498 0.02102628 0.7592168 112 118 137
1.07822368542997 0.290878820908066 0.772075118546074 -0.8242332 0.1962679 0.5311484 114 119 129
1.16238397968141 0.181099808514602 0.777158857919568 0.2687869 -0.5890389 0.7620935 132 139 159
1.16738360611648 0.250053250058162 0.781814643214987 0.9802471 -0.1394373 0.1402599 118 125 138
1.08286678099838 0.20759741932692 0.761169879785849 -0.866358 -0.2097472 -0.4532439 119 119 104
1.08209243974025 0.216015011919448 0.763362169366187 -0.9045992 0.09291558 -0.4160131 102 105 110
1.12590830943905 0.235859677849005 0.817121665761615 0.2554212 -0.3936172 0.8830773 123 132 153
1.09348739877817 0.317775502572842 0.784450370575417 -0.9014752 0.1134739 0.4176914 85 88 98
1.09827451124015 0.302321858697105 0.794399278480315 -0.8168296 0.04095396 0.5754235 95 98 112
1.08155062526357 0.216765500947228 0.802661108093547 -0.5766338 0.1571394 0.8017486 110 114 125
1.12552243692193 0.247772031118008 0.822982099531346 -0.1536281 -0.1314926 0.9793406 130 140 166
1.07925823827422 0.191905724275159 0.800826178290031 -0.5700046 -0.1176906 0.813169 94 103 111
1.11395153198478 0.194892226998432 0.800297484541213 0.4459228 -0.4360402 0.7816789 109 121 134
1.16787581419035 0.253433041558385 0.77853023341964 0.989756 -0.130138 -0.05871092 103 110 128
1.10277462586393 0.221396805000429 0.815324100109993 -0.497519 0.2846939 0.8194049 98 118 111
1.08103141844531 0.202445926451655 0.804226278949881 -0.6076797 -0.02756772 0.7937036 126 133 146
1.16635910768706 0.23350135761741 0.778267462846088 0.9658508 -0.03423521 0.2568272 103 111 124
1.1117594717853 0.257196108716609 0.814019950838386 -0.6024904 0.162156 0.78148 121 127 137
1.11614425236226 0.314453512582111 0.815702879877197 -0.5628532 0.2299948 0.7939135 125 131 143
1.16607168035179 0.196882444131827 0.788090705927373 0.5622174 -0.3932416 0.7275112 161 168 189
1.10278958001214 0.325862952499564 0.798872758646948 -0.7498798 0.2908837 0.5941944 103 110 122
1.11687041840157 0.269397685426182 0.81743797685841 -0.5748768 -0.1174224 0.8097708 185 202 138
1.12778896977972 0.26234264275138 0.824425611802473 -0.4184625 0.01873833 0.9080409 123 133 146
1.13952627448958 0.301308665924556 0.814125001261662 0.5432274 0.1848233 0.8189898 122 131 149
1.10313572565276 0.29885056106044 0.801454934174765 -0.750962 0.1091313 0.6512654 105 108 120
1.14454859650728 0.26756110803538 0.815247514655389 0.5772771 -0.02918121 0.8160267 106 114 131
1.13509947219032 0.173087678806485 0.779574527216586 0.3471182 -0.5336861 0.7711602 120 128 148
1.1025870415253 0.335984442917991 0.784825506715299 0.00790639 0.9502122 0.3115033 134 140 150
1.10415153168943 0.267763909345339 0.805563234534421 -0.6987792 0.1107837 0.7067068 196 213 147
1.08077285965425 0.227388995172359 0.799195596198047 -0.4630738 0.4106441 0.7854515 94 98 104
1.09763910950014 0.237022483290081 0.807499601104435 -0.7080124 0.1194227 0.6960292 122 130 136
1.13167223726237 0.209938127640892 0.803686495846342 -0.1015835 -0.5464449 0.8313115 133 154 135
1.07811985838096 0.220428306018949 0.774852753514581 -0.9264098 0.08244598 -0.3673792 105 109 121
1.09545845006745 0.315153852037426 0.789546181311175 -0.8422242 -0.01235589 0.5389857 98 104 115
1.07721517466943 0.186915501314893 0.79601436802668 -0.9604928 -0.2713904 -0.06164993 78 84 80
1.0871094176263 0.192321540908846 0.770804715989485 -0.7391299 -0.5450789 -0.3956968 67 78 60
1.09863055609857 0.17334104567576 0.794181784023547 -0.1256994 -0.732384 0.6691887 102 110 123
1.1186173516517 0.162438635545436 0.759285305169728 -0.1122316 -0.9307014 -0.3481365 70 79 79
1.11942600363224 0.164848619973178 0.777369975670598 0.02063178 -0.6512712 0.7585646 96 105 118
1.15153826064681 0.224793547858417 0.803892872323351 0.7443131 -0.1659892 0.6468736 87 99 111
1.14219103390498 0.253443862303713 0.818651453758534 0.580029 0.001665293 0.8145941 90 99 107
1.08354422505935 0.231371238662679 0.763323928321252 -0.929806 0.02077576 -0.3674631 151 151 158
1.16129295380088 0.2827855563079 0.792199398226566 0.8208874 0.09362135 0.5633639 120 124 141
1.12246724387541 0.291687333383975 0.823312995014405 -0.4480562 -0.16616 0.8784284 135 157 116
1.10623212214349 0.333967609181126 0.777224845508203 0.3789821 0.9234959 -0.05939588 118 121 133
1.11043646937167 0.269963411577697 0.8114037095266 -0.7035497 0.05054747 0.708846 193 207 153
1.14890978207262 0.243745506356199 0.809965982436718 0.6567835 -0.1259666 0.7434835 103 114 130
1.15840036397162 0.205190063463323 0.794135777897239 0.5511025 -0.09364006 0.8291669 133 141 168
1.10418232779759 0.165021028471888 0.782077801950223 0.1639948 -0.7543369 0.6356741 105 109 124
1.12187327349827 0.264249561713715 0.819860102539603 -0.5916597 0.08912706 0.801246 103 111 118
1.07711045037234 0.201094576812733 0.779561093055964 -0.8198499 -0.3492358 -0.4537405 111 118 110
1.10049713084199 0.305946498369791 0.796952751265067 -0.8048341 0.02927896 0.5927773 116 118 125
1.13210085631534 0.18739971164765 0.791626994199486 0.2391062 -0.3424994 0.9085826 123 130 150
1.10026951985791 0.316779310250097 0.79747916042389 -0.8178808 -0.05903198 0.5723515 128 133 145
1.13505564944535 0.168103433120582 0.776148322974382 0.2843341 -0.6287368 0.7237709 119 126 152
1.09151228898027 0.211295780766229 0.811229291630905 -0.6307715 0.09669591 0.7699203 109 111 130
1.14140072497196 0.296406595154233 0.814973356432433 0.5163407 0.2326646 0.824172 140 144 163
1.14285438547925 0.299112221338697 0.812794214320539 0.6249834 0.1949947 0.7558921 143 149 165
1.1616258206196 0.21399419313901 0.792155362322415 0.6803578 0.08129293 0.7283575 96 106 116
1.10239566088187 0.17499386936198 0.76272767654413 -0.6935025 -0.6974655 -0.1805441 63 73 60
1.1339305037661 0.322259340421292 0.799095940122736 0.1294948 0.9911487 -0.02924827 76 81 85
1.09483677356619 0.184849795031691 0.75888989770011 -0.8824933 -0.4517427 -0.130897 78 84 72
1.15188313914 0.304934992438901 0.801529997762831 0.7258003 0.286708 0.6253099 114 121 131
1.08646631155617 0.256716919862458 0.793179709228453 -0.6973783 0.2494743 0.6718824 86 91 97
1.17096131513281 0.263822835966401 0.778569665835881 0.8866751 -0.3233844 0.3304994 89 98 110
1.09234223367492 0.329934449413662 0.781482932785341 -0.9141984 0.1236882 0.3859307 123 129 135
1.17132139767707 0.27366025978608 0.781194124940259 0.8458072 0.1935312 0.4971477 91 102 104
1.14941772188015 0.311496932471555 0.799366097774768 0.713573 0.5563832 0.4257362 97 100 114
1.08068161542231 0.200988958859471 0.803825039532436 -0.6303564 -0.09700435 0.7702213 145 151 164
1.08653649811204 0.180787261665002 0.798115037363909 -0.462694 -0.7035635 0.5393631 141 145 168
1.15850809273114 0.19953404378911 0.79414959467442 0.4297192 -0.3862695 0.8161724 186 192 210
1.12624546386244 0.263954734877687 0.823133149959151 -0.5424559 0.01353846 0.8399751 99 109 117
1.08235198950392 0.20764584345762 0.76213280482066 -0.867388 -0.2374003 -0.4373547 119 120 131
1.10870240935957 0.328380547771324 0.803377047160163 -0.3611388 0.7092264 0.6054559 121 126 134
1.10155976728267 0.16703487815955 0.776507970812384 -0.7440613 -0.6481795 -0.1619758 71 77 72
1.1505394104062 0.223671915945943 0.804913630951414 0.7285169 -0.186324 0.6592013 117 124 142
1.17174223473091 0.210822838471526 0.77267891778393 0.9572712 0.2865453 0.03903401 105 110 115
1.10357293307248 0.250964585177357 0.808626863378731 -0.7139513 0.1602102 0.6816202 125 148 119
1.12563300256861 0.268940067966764 0.823092969346021 -0.5747755 -0.08213048 0.8141792 182 198 164
1.13671535897614 0.184025735230254 0.788429306274761 0.3190907 -0.4392653 0.8397781 148 154 177
1.15446581829088 0.231316402660565 0.802509186817494 0.7621928 -0.05183932 0.6452711 154 165 180
1.12599460565282 0.286748438270481 0.822303842181671 -0.2817799 -0.05445061 0.9579328 100 124 115
1.1714447432584 0.279957287075399 0.778400825485054 0.8524982 0.121945 0.5083073 70 77 76
1.12005089439655 0.318960426732593 0.81591074185888 -0.06169378 0.7525048 0.6556908 128 134 141
1.16524935265467 0.268365503569044 0.791449962134438 0.814051 0.1383217 0.5640815 97 105 111
1.10431923748173 0.170796442420211 0.766090193116952 -0.7864398 -0.5241503 -0.3267707 65 72 67
1.14497180267554 0.249195910575317 0.814352637151305 0.6467488 -0.09367446 0.7569287 92 99 113
1.11714101373959 0.238344321922454 0.820044457052622 -0.2181002 -0.1587788 0.9629236 184 203 171
1.12585303837545 0.231041419818351 0.815842112689898 0.2940775 -0.3730668 0.8799657 118 128 148
1.14770233941124 0.236788723768503 0.810683961853114 0.6626238 -0.04743962 0.7474484 104 119 136
1.09842056121211 0.174878583180458 0.767848937781469 -0.7319935 -0.6168398 -0.2892993 67 75 66
1.16768804235307 0.260613848176364 0.784003933169802 0.895616 -0.2107437 0.3917386 76 88 94
1.13605720361375 0.298654124765481 0.816955096418518 0.5565286 0.1907721 0.8086296 127 137 154
1.09148640790889 0.338289551226757 0.773873301229595 -0.7865157 0.5980299 0.1541209 127 132 137
1.09326355650098 0.189175642986007 0.804541074803141 0.106088 -0.5361962 0.8374001 134 141 159
1.08843761256375 0.314028611407958 0.774990045851195 -0.8955094 0.1183957 0.429005 127 134 142
1.10392617464195 0.198928692886896 0.808196397805368 0.2435128 -0.4847533 0.8400689 115 128 143
1.15824937783878 0.220145743846618 0.794829458625726 0.7763372 -0.04363763 0.6288054 81 91 96
1.09000481666301 0.178753464337999 0.798327666072308 -0.2139028 -0.7075847 0.6734756 158 162 179
1.07528590799571 0.199320879045911 0.783616702943201 -0.7923632 -0.3817151 -0.4758721 122 125 131
1.08967294189338 0.177341617241432 0.789234879006663 -0.7853269 -0.5316154 -0.3172486 73 79 75
1.16299332464003 0.25329107850837 0.792864276017 0.8767378 -0.05959425 0.4772621 102 114 127
1.16854231999304 0.190522178430343 0.777975433256719 0.7605146 -0.4768075 0.4407632 145 148 168
1.14180425789831 0.194265246407821 0.79198812572978 0.1241363 -0.5160537 0.8475134 113 119 139
1.11896124440163 0.3254620695741 0.792939523906652 0.4105943 0.8821201 0.2308169 78 84 85
1.11208590054453 0.301796050162941 0.815070264396266 -0.7956569 0.03941584 0.6044639 116 120 139
1.07912986743179 0.266438783049181 0.77476554264964 -0.9295918 0.18792 -0.3170883 110 114 116
1.14734371813951 0.235481807922678 0.810537308122886 0.6774355 -0.05763946 0.7333205 116 126 146
1.15674074259734 0.31003398505211 0.786335991244787 0.7514136 0.6467503 0.1307353 135 137 151
1.15283521264921 0.247147468678167 0.806549815131429 0.7311747 -0.1183273 0.6718497 112 124 143
1.14528449461094 0.282476880790825 0.814346466447956 0.7460905 0.1246904 0.6540652 106 115 124
1.13498516399284 0.302303069993256 0.816886734102365 0.5511442 0.1718861 0.8165141 118 124 146
1.10380649200047 0.227219188518678 0.813969472244523 -0.6356328 0.1720271 0.7525806 104 129 91
1.1365008795425 0.198706153004574 0.795259851480634 0.1232639 -0.5128244 0.8495982 97 105 118
1.08713838091637 0.190793631476063 0.772244762368661 -0.7450246 -0.5754511 -0.337334 68 77 61
1.08141853531911 0.309052305900767 0.768481496996595 -0.6710149 0.4093502 0.6182001 162 164 174
1.13754605473697 0.234870666384611 0.815332304636272 0.1153237 -0.3764325 0.9192383 129 135 152
1.14322100678416 0.204269197550062 0.800726275783403 -0.009829354 -0.6649432 0.7468293 116 124 140
1.09653210493625 0.182316890394585 0.757616413941306 -0.8543582 -0.5054876 -0.120642 98 104 104
1.13287091888889 0.215468402431772 0.807609459777841 -0.103992 -0.4865422 0.8674459 177 195 168
1.0928932272826 0.259280791356516 0.797656242127192 -0.5156795 0.2761311 0.8110648 86 94 100
1.1628633744411 0.302622135029724 0.787546254327464 0.8028399 0.4993078 0.325791 118 124 132
1.08713619097982 0.300524650076655 0.778714249006078 -0.7368261 0.2557468 0.6258441 97 103 112
1.16208557958751 0.286807482463708 0.790050918896471 0.7922308 0.1550397 0.5901974 117 119 138
1.07229471641033 0.216444070695827 0.786426674997362 -0.8796613 0.1149245 -0.4615067 105 112 121
1.12865327082976 0.269707213989659 0.825228967098955 -0.166554 -0.04512947 0.984999 185 199 173
1.0766354264692 0.2381190923016 0.787586184402635 -0.609984 0.4007604 0.6836011 100 106 113
1.08221974257057 0.192631654516729 0.803783366798182 -0.5889706 -0.1505266 0.7940122 114 122 129
1.08113062958838 0.27160885666932 0.777597623504021 -0.885318 0.3389319 0.318335 90 99 102
1.0785150851708 0.189278444293974 0.791357920270627 -0.7447813 -0.5087082 -0.4318759 64 72 58
1.08992008170922 0.246617694773244 0.798992889893268 -0.6557172 0.05086472 0.7532912 108 115 126
1.10917434311343 0.289264076596995 0.811904886530934 -0.8569035 -0.06137931 0.5118095 136 158 120
1.08210433974602 0.265158390328774 0.771749963479722 -0.8740461 0.01627799 -0.4855701 108 113 119
1.14408074490155 0.193294144740289 0.791352148881235 0.02068142 -0.5422329 0.8399736 112 121 139
1.10000011817155 0.165589149586314 0.779644474698851 -0.4892614 -0.8685682 0.07881988 76 83 87
1.07552162108155 0.231836020475487 0.781083569020316 -0.8915001 0.01720309 -0.4526938 123 125 131
1.11540225533684 0.173587376382129 0.783290038051454 0.05504486 -0.6966264 0.7153194 78 88 96
1.07727820442833 0.222543454411083 0.798194569096623 -0.525291 0.2640247 0.8089254 104 109 116
1.10202495548143 0.237856382580938 0.810804868499681 -0.6248627 0.191574 0.7568659 92 98 109
1.10415446246516 0.215749941814469 0.815836994982554 0.02192633 -0.1691641 0.985344 162 167 178
1.11736013901639 0.312520708152744 0.816070440623724 -0.5946009 0.2691956 0.757617 119 123 136
1.07851765253892 0.231896210563374 0.795738211511829 -0.3567759 0.5459341 0.7580678 97 102 112
1.1273284090118 0.177201157392819 0.788750222215117 0.1709063 -0.6310623 0.7566713 96 108 123
1.14675170844668 0.27872596857657 0.812801917804691 0.7943669 0.14034 0.5910041 89 98 105
1.08939233607006 0.200245809990931 0.809444377963474 -0.512561 -0.02315915 0.8583385 101 107 118
1.10489165872506 0.296822331932227 0.803511992129612 -0.7584296 0.1249936 0.6396571 88 93 99
1.07059445755814 0.200081263075392 0.794836021500094 -0.8293419 -0.2937497 0.4752926 143 146 147
1.0899140691999 0.270260010941534 0.789617675723816 -0.7548329 0.1830073 0.6298694 92 97 103
1.12357624142359 0.18776629411175 0.792942084507617 0.1035122 -0.3494494 0.9312198 96 105 111
1.0896975804014 0.180548392292377 0.799572239255228 -0.1828316 -0.5779489 0.7953286 130 143 157
1.0793990148894 0.19940742247056 0.776730688736645 -0.7677569 -0.4802939 -0.4241074 127 129 128
1.15733349073281 0.209759386719201 0.796054283012823 0.6756288 0.02487206 0.7368222 109 116 134
1.11669256992088 0.330897077721065 0.786127762249712 0.57515 0.7904369 0.2107416 128 137 148
1.1160391655751 0.163712572951771 0.762342091450807 -0.2223544 -0.9104821 -0.3486844 56 68 61
1.16395237294251 0.206812122336387 0.790835763369984 0.6403568 0.01491329 0.7679328 158 159 174
1.12069280366006 0.290667265534798 0.821829817958666 -0.4788846 -0.1430113 0.8661509 164 185 132
1.16003676185363 0.299309074177946 0.79314517489286 0.7605382 0.01282673 0.6491665 110 122 137
1.08774102596095 0.233990450338328 0.798274006027579 -0.5957969 0.2555158 0.7614051 94 101 101
1.16440460654621 0.30164029106398 0.783588982205758 0.7776552 0.5785713 0.2459834 131 136 149
1.15379855932877 0.268103558937596 0.806114010043 0.8182075 0.06105946 0.5716714 100 111 123
1.07695468071988 0.202218143471341 0.800647212679036 -0.6745095 -0.05559355 0.7361701 105 113 126
1.16178989650263 0.279578131513716 0.793278419605051 0.78446 0.09875324 0.6122665 82 89 93
1.08306713199142 0.240222765793524 0.793543620475158 -0.6034002 0.1804548 0.7767523 111 119 129
1.10085867448052 0.178535927408481 0.797566072152599 0.1224863 -0.465055 0.8767674 130 134 157
1.11063167910774 0.333653462177014 0.782236098733097 0.3098636 0.9470097 -0.08460117 90 93 101
1.12197118685292 0.290322534413564 0.822950553667286 -0.4556273 -0.1498493 0.8774673 177 194 143
1.09309693774793 0.283372290841856 0.790750513811124 -0.7460181 0.2109969 0.6316149 90 95 101
1.09739228436937 0.261356666852454 0.799977401720575 -0.5987978 0.250953 0.760568 108 109 118
1.10713108098235 0.165234478139536 0.762356518912332 -0.7741954 -0.5738292 -0.2670984 76 82 79
1.09195092557165 0.313445910360469 0.783821926848704 -0.9104085 0.09115476 0.4035432 88 92 100
1.09057322403582 0.263138068423493 0.7941869415404 -0.6031523 0.3608657 0.711325 90 97 102
1.082003551178 0.311074122704714 0.767472741411588 -0.703156 0.4111039 0.5801425 116 126 146
1.1413423814458 0.321680828201344 0.791423328192929 0.1236084 0.9872292 0.1004968 149 155 161
1.13399115215788 0.29844391851534 0.818810631894148 0.5892414 0.2363505 0.7726144 131 136 153
1.14744507480557 0.280464419526983 0.809701074257314 0.8430634 0.1534177 0.5154681 132 136 157
1.11030633142626 0.308448061758076 0.81255066304612 -0.7791889 0.1174823 0.6156806 140 146 156
1.14438993803406 0.176774462692794 0.782349339296277 0.3921599 -0.7188601 0.5739778 88 99 118
1.16415179661225 0.242638166168942 0.786711986114701 0.9251543 0.008848577 0.3794881 173 172 190
1.07556063640315 0.212913460247251 0.798617391498041 -0.5455963 0.05597959 0.8361764 111 115 126
1.15103945083926 0.24035523475825 0.807111994988442 0.7301674 -0.1473912 0.6671817 128 137 161
1.1089269761768 0.202498244095654 0.807876842274312 0.3987625 -0.4428972 0.8030134 143 162 146
1.16978139441124 0.194815400452418 0.781242030447852 0.8075507 -0.3979654 0.4352994 139 151 173
1.10365664905502 0.173112458106261 0.759125965826576 -0.7561756 -0.6404134 -0.134422 64 73 62
1.12527950868586 0.218903396441468 0.809903146299979 0.216366 -0.4717798 0.8547571 119 132 144
1.14163502814604 0.176172472997467 0.779705623572798 0.333704 -0.7559172 0.5632325 81 93 111
1.1151769001046 0.201604348527438 0.804847487262174 0.4613175 -0.3857253 0.7990007 179 195 180
1.09607930423056 0.192056106834164 0.806376144428096 0.1934189 -0.461208 0.865954 138 146 168
1.07764931197837 0.295247279591548 0.769402433287461 -0.9153726 0.0589536 0.3982682 128 132 149
1.17129052125018 0.205231091530272 0.78346109819682 0.8572249 0.03587044 0.5136912 121 129 146
1.13112099229093 0.262624350906729 0.825295386373506 0.05361316 -0.1076821 0.9927387 147 152 167
1.14745014885554 0.292421236968467 0.806752389973519 0.806199 0.09527223 0.5839232 98 107 118
1.13923636519051 0.286905744264835 0.817914045614946 0.5581345 0.1067617 0.8228534 117 123 145
1.14136939818472 0.322027313085997 0.782011144028603 0.2298474 0.9726421 -0.03372807 113 116 128
1.16246408262133 0.261665116064043 0.795546834135534 0.7915307 -0.05654137 0.6085082 102 110 124
1.08957395132556 0.26640939786894 0.791060099969748 -0.6899291 0.3546614 0.6310412 83 90 95
1.12612040294179 0.222083511320783 0.811389409684724 0.2213749 -0.405537 0.886867 140 150 168
1.07767870842501 0.209023323770712 0.7718034509594 -0.9109923 -0.06312303 -0.4075643 129 131 140
1.08323816093847 0.233247457917298 0.763547848049074 -0.9247469 0.02210488 -0.3799402 150 150 156
1.14408107431953 0.242818026570212 0.814398175472338 0.6351274 -0.147415 0.7582096 85 97 106
1.12956098570951 0.160262765083797 0.769001832908493 0.3736895 -0.9272455 0.02391414 110 114 135
1.09913221877742 0.201030378228191 0.811007808437175 0.1763361 -0.5453091 0.8194776 133 144 162
1.09312244490768 0.178772217606533 0.782289447211024 -0.8002913 -0.4716372 -0.3702594 68 76 63
1.09195456617609 0.261355975586651 0.796412322062554 -0.5637498 0.327364 0.7583001 102 105 113
1.10494169004607 0.266543909044521 0.806268155128959 -0.6921207 0.1247683 0.7109162 195 216 123
1.07383058244128 0.211914189830528 0.797666923224328 -0.5626324 -0.01936445 0.8264804 106 112 121
1.12883357763076 0.217440129960703 0.808846220975272 0.1014958 -0.4635637 0.8802314 163 182 155
1.14133751574575 0.180852682271262 0.784006777667167 0.3618824 -0.5644085 0.7419462 121 131 154
1.09936701460907 0.249218478827111 0.804906691845851 -0.6267206 0.185899 0.7567448 140 144 155
1.09264993346443 0.276332437631996 0.792971062244287 -0.7756751 0.1210451 0.6194159 101 106 111
1.08047098717745 0.250491419510197 0.76938509153227 -0.882551 0.09947726 -0.4595739 100 103 99
1.09359178704786 0.299282324349056 0.788020515928032 -0.8393611 0.03816891 0.5422326 82 86 92
1.10236006256232 0.230459957806178 0.812506953549945 -0.6678112 0.1084312 0.7363905 108 114 121
1.16877004077394 0.21928547927503 0.774401241235126 0.9118561 0.1540592 0.3805053 99 107 110
1.11511736614263 0.257750675786549 0.816898813964853 -0.5969934 0.1841841 0.7808169 134 143 154
1.10608282228778 0.193578418910052 0.803429236260872 0.3251818 -0.4506093 0.8313893 125 132 159
1.13419286669151 0.237709683018379 0.817595448760405 0.0838416 -0.4427584 0.8927125 123 140 133
1.09376162700267 0.254848974487065 0.799081752129346 -0.5204123 0.2255364 0.8235924 104 110 119
1.08535574360631 0.180587494701881 0.792322111634309 -0.684463 -0.654254 -0.3216552 80 85 83
1.09206396770453 0.248002938670888 0.800449745317487 -0.5515314 0.185519 0.8132623 122 129 134
1.09191788759541 0.267178598950498 0.793168172056532 -0.6887832 0.2626087 0.6757325 86 90 94
1.07275089796533 0.197463897538577 0.789868675808315 -0.8112967 -0.5139358 -0.2786891 114 118 113
1.09547284336986 0.321046967994748 0.792614703396087 -0.8520096 0.01621022 0.5232751 144 149 160
1.15625084600071 0.20986206086228 0.796213314039386 0.6789806 0.00647458 0.7341276 126 133 156
1.16487097324671 0.251518404430412 0.787751410844595 0.9330737 -0.1385956 0.3319106 90 100 112
1.16549425717484 0.23131145246932 0.782684211927387 0.9674697 0.06797133 0.2436851 103 110 124
1.1180519280711 0.328047864715253 0.78875861852588 0.5244393 0.7674693 0.36872 103 107 117
1.0783363760906 0.260699470654779 0.776588592015306 -0.9327919 0.1562157 -0.3248013 110 111 121
1.07689769736797 0.237557070514549 0.788699410325525 -0.6136119 0.4239676 0.6661321 100 107 114
1.08927675603477 0.282412358133681 0.78698365213555 -0.7419925 0.1760599 0.6468771 81 86 88
1.11938747171068 0.309719036801431 0.821325594611078 -0.5011015 0.3609698 0.7865101 108 114 124
1.17034245894559 0.264478231021423 0.780479527360305 0.8893001 -0.2973603 0.347451 90 99 112
1.10222800740125 0.28112325366746 0.801848143552307 -0.7145774 0.1225335 0.6887413 80 84 86
1.11234801588856 0.271246798949171 0.81303069785839 -0.7217751 0.0121228 0.6920215 147 168 115
1.15591740902441 0.304245449607689 0.797769812826112 0.7392925 0.2934102 0.6061 110 114 125
1.08248683547376 0.221059070724253 0.802124291449736 -0.5923057 0.2140327 0.776765 98 103 116
1.16487018375193 0.21954719433329 0.788428892252116 0.7191324 0.1124021 0.6857217 106 116 130
1.10465801528928 0.17246690351952 0.753899263084303 -0.7762281 -0.6154486 -0.136722 72 81 81
1.14466880110458 0.214356595544592 0.808200091626055 0.3975526 -0.3629965 0.842725 137 146 168
1.10778242691231 0.166779078753062 0.756738010961062 -0.7325619 -0.6619062 -0.1588502 79 86 89
1.10106619334695 0.242420683544252 0.808510476832112 -0.6441669 0.2378059 0.7269782 105 110 119
1.08359559013064 0.246434561459042 0.79303601282426 -0.6694451 0.1279387 0.7317616 102 106 111
1.08329707789651 0.246697746499981 0.792619076020855 -0.6608574 0.1362825 0.7380342 96 101 107
1.13003106345065 0.168067638499017 0.77706676945636 0.1091449 -0.7616352 0.6387481 95 103 117
1.07912883513967 0.185919609665302 0.793338204294926 -0.6257682 -0.6463609 -0.4366142 73 82 74
1.15442620173235 0.188835193788425 0.786141426526248 0.1786344 -0.632621 0.7535782 101 107 124
1.07643124803368 0.219661880318703 0.798458180015218 -0.5127822 0.2055957 0.8335376 99 108 115
1.09263651774465 0.271710773522808 0.79252461714333 -0.7802578 0.09459908 0.6182626 93 97 104
1.10564728703477 0.333588852994658 0.793195039822617 -0.2077659 0.8876654 0.4109543 134 138 146
1.14729221339113 0.319271119441572 0.781399629012929 0.5035913 0.8591985 -0.0904085 152 156 165
1.13444391301587 0.166669476675741 0.775335066319915 0.2357589 -0.7095907 0.6640022 107 117 135
1.08177282307311 0.228842979900929 0.76887975462707 -0.9108517 0.03496211 -0.4112502 99 100 106
1.07784057609194 0.252212943943834 0.775669599383161 -0.886563 0.07951955 -0.4557221 109 110 117
1.13973433037136 0.319633844737827 0.803312670526193 0.4093907 0.805355 0.4287221 119 126 135
1.15323484457397 0.283751772389189 0.801473806820519 0.7648933 0.1303943 0.6308213 157 163 179
1.15747343995469 0.195515825389985 0.790514972684832 0.3157692 -0.5987439 0.7360677 156 163 183
1.12318104249387 0.313624038431116 0.819264299342646 0.1079617 0.4408809 0.891049 132 138 150
1.08369403750489 0.267465824186438 0.767721308171934 -0.8787217 -0.0002487742 -0.4773345 106 112 114
1.08418286394299 0.214416868930584 0.757157277617786 -0.8836413 0.01915799 -0.4677725 71 76 61
1.09192907112565 0.323486444958884 0.780749691695259 -0.9043233 0.09338948 0.4165066 104 105 112
1.12569851056929 0.282380480082766 0.823959376760815 -0.2739491 0.06300553 0.9596781 132 137 150
1.14418107921107 0.320763663061504 0.793673124969987 0.4610471 0.8737553 0.1548777 146 153 157
1.11195563795672 0.16098466413879 0.769258330779998 -0.1929516 -0.9387838 0.2854025 79 88 99
1.09063645301015 0.292254493525128 0.785713922965229 -0.7286631 0.1995349 0.655161 89 94 97
1.17135249389287 0.274705342972167 0.778568665529786 0.8524966 0.1493515 0.5009429 99 105 115
1.14679627172898 0.308298751197857 0.80640431480972 0.744973 0.2811804 0.6049402 120 125 139
1.12181525420994 0.210824756407912 0.807251385383961 0.2282908 -0.6020038 0.7651632 101 112 129
1.08944340242491 0.183395981916047 0.801491519096798 -0.1784922 -0.5395179 0.8228372 155 162 177
1.09544904783199 0.230394058493378 0.806179490697332 -0.6928018 0.2207641 0.6865047 99 104 107
1.14239885339123 0.208248542970506 0.804365856984445 0.04125369 -0.6465505 0.7617549 161 167 186
1.08134038707703 0.279997696201578 0.778476444175073 -0.7498679 0.06159827 0.6587138 112 117 127
1.08726694011139 0.308930428725672 0.775319635969451 -0.8236217 0.2127631 0.5257176 91 97 107
1.12160707186033 0.188621483962293 0.793606127746664 0.2184469 -0.3989045 0.8905931 96 105 112
1.1072735163891 0.225977793490552 0.816607854953887 -0.3939581 0.07018098 0.9164451 135 147 149
1.08703070530959 0.282568566065821 0.784121254789943 -0.7760549 0.1453905 0.6136777 94 100 109
1.10347450567452 0.173798453024664 0.788236673773049 0.4360115 -0.8350366 0.3355709 73 86 89
1.08583886672045 0.219284578368518 0.804971139544227 -0.5911748 0.1440235 0.7935804 95 99 104
1.10084279237845 0.298698271203291 0.798255958141397 -0.8163733 0.03889134 0.5762133 73 80 78
1.15079011191315 0.170654810246477 0.771997776406487 0.09055319 -0.5350599 0.839947 108 115 130
1.17253117616819 0.27329792341364 0.777663037392405 0.8734396 0.1499425 0.4632715 106 109 124
1.15521395879705 0.285022205981953 0.798414819114417 0.7152113 0.1072015 0.6906379 136 139 162
1.07391362836191 0.215916766491197 0.781963037088409 -0.9039132 0.1022923 -0.4153039 122 124 130
1.15782760650029 0.222832499537365 0.796748072495745 0.7936962 -0.07919431 0.6031373 77 86 93
1.12941746517913 0.192352015737795 0.793937861892224 0.1409207 -0.3740861 0.9166247 137 140 163
1.12901681411283 0.245981991868667 0.822780644847765 0.1249528 -0.3584904 0.9251331 110 118 139
1.14848363266459 0.28243693364089 0.807793276891339 0.8227504 0.1392335 0.551086 107 115 128
1.15781027681766 0.288502571664075 0.796232528355705 0.7476988 0.1498093 0.6469186 113 122 134
1.09936821963183 0.171795128421963 0.791255108545175 0.1139872 -0.8913739 0.4387019 99 105 124
1.16065193448047 0.280181808146094 0.794417917911679 0.7905266 0.08375759 0.6066731 80 91 94
1.15510789395794 0.24028940548027 0.801238913220233 0.790417 -0.1218151 0.6003351 95 101 121
1.11001201819684 0.199181379030751 0.805886145974726 0.4098951 -0.4747194 0.7788629 105 121 124
1.13340529068481 0.269456838863384 0.824424856987843 0.3512613 0.06791819 0.9338109 163 176 169
1.15585089744285 0.303311588613246 0.796235513657693 0.7310219 0.2774223 0.623413 110 121 135
1.11038853939656 0.289388761477998 0.813859655848548 -0.7782518 -0.04758181 0.626147 160 177 142
1.09495798113626 0.251941792810168 0.800524632826784 -0.538139 0.2364283 0.8090167 95 102 109
1.1490148262301 0.247252289667409 0.809975811689006 0.6730124 -0.08174067 0.7351006 94 105 114
1.10756489955028 0.238633247472597 0.815722791170433 -0.6219221 0.1832914 0.7613261 121 135 118
1.12935762732626 0.238686596354325 0.81806247231776 0.09229669 -0.4188626 0.9033468 107 129 131
1.15331716389787 0.207079886661656 0.79899365454226 0.5569777 -0.2950262 0.7763603 155 160 180
1.16301330546784 0.220177676763336 0.789405016384904 0.6876873 0.09540563 0.7197111 119 125 149
1.11917149035973 0.260375291930026 0.818794218393901 -0.5333491 0.2113855 0.8190573 177 196 156
1.14238135179542 0.271615689700774 0.817202384140139 0.5431781 0.005285203 0.8396009 87 97 105
1.1160959263112 0.279103568641155 0.817917750391432 -0.613068 -0.07367 0.7865878 138 149 163
1.11013522245235 0.16188491798212 0.774621076576091 0.102795 -0.9114267 0.3984151 90 98 108
1.08547897872678 0.275219316052796 0.764755011826531 -0.857488 -0.02770582 -0.5137574 107 113 118
1.15240824836845 0.275235678714213 0.804251323694366 0.7177762 0.2546116 0.6480511 126 132 153
1.08143777633949 0.207292420093172 0.80428021110941 -0.6352872 0.101767 0.7655414 82 89 98
1.09533937798479 0.332870460932533 0.786127648449914 -0.6932467 0.4221646 0.5841115 103 109 118
1.15011035324396 0.29956947580602 0.804076424764709 0.7548483 -0.04345655 0.6544582 89 95 106
1.15334686466003 0.230683694407006 0.802926754062494 0.7377201 -0.03011036 0.6744349 160 169 185
1.08010725721071 0.241995260069858 0.790555734331673 -0.6938578 0.180995 0.696995 93 101 105
1.08823575678383 0.259328661453934 0.794024370463977 -0.6518969 0.326121 0.6845988 104 109 116
1.12239696345688 0.262880919795914 0.820655823167754 -0.5723661 0.1311021 0.80945 118 127 136
1.0905965543377 0.191545158084399 0.806472131403235 0.04115834 -0.4755462 0.8787274 139 147 169
1.08993849196815 0.185135384243163 0.802235802712119 -0.1263891 -0.5496146 0.8258023 167 171 186
1.08237224605842 0.259904953262367 0.787871639706256 -0.6788087 0.2869414 0.6759315 99 104 115
1.12274228570677 0.29974466955061 0.824554554587638 -0.1241924 0.1697658 0.9776276 136 140 155
1.16668184456659 0.237042286676409 0.777642246883985 0.9758126 -0.04888603 0.213073 100 108 119
1.12549144445925 0.326189000498197 0.777391157833431 0.3756666 0.8977675 0.2299743 91 95 105
1.12364409282582 0.326112423150181 0.785483486691375 0.4016186 0.8773621 0.2625611 81 88 90
1.08608780058077 0.307858622327918 0.773478353958796 -0.714987 0.2904266 0.6359606 117 124 129
1.16571157089488 0.238355842625246 0.781886628136119 0.9610314 -0.1483081 0.2332881 92 103 114
1.1289753789224 0.283339930085266 0.824496879289106 0.1103486 0.08416837 0.9903226 164 166 179
1.11552749727583 0.191213323628761 0.797592051622903 0.4763993 -0.4005425 0.7826937 105 117 122
1.13382024903048 0.273007784862008 0.824496617598504 0.4786799 0.1471006 0.8655789 151 155 164
1.07884219171068 0.220924953018283 0.799628648069969 -0.5379019 0.2188951 0.8140925 95 100 107
1.14648167987434 0.20717675095137 0.802932024756244 0.2338095 -0.5573294 0.7966914 179 183 199
1.08195784537864 0.246615532558573 0.791450316501916 -0.6880211 0.1452281 0.7110103 99 104 112
1.13547096428137 0.17756021640212 0.785442818035228 0.2734287 -0.7036347 0.6558467 135 141 167
1.14818318830218 0.206634544577153 0.800383970301697 0.2910905 -0.5392411 0.7902439 162 168 184
1.11590378649729 0.328517370444041 0.791824759382047 0.5558504 0.7314925 0.3949037 92 91 104
1.13580577581376 0.269484934098117 0.822560575420586 0.6660414 0.2029731 0.717768 110 119 132
1.10838220852079 0.165668334761352 0.756993523052706 -0.7019637 -0.6927794 -0.1652384 88 94 100
1.11656596938403 0.228208570184999 0.816502222991795 0.1402805 -0.3487312 0.9266649 137 147 162
1.1102146462461 0.318359868650564 0.810277640316639 -0.5972679 0.2054992 0.7752686 120 127 140
1.15735111593408 0.295677397852753 0.79594879118014 0.6870813 -0.1248425 0.7157748 80 93 99
1.15678070430434 0.227057989931126 0.79832842525713 0.7941166 -0.0928693 0.6006281 92 100 114
1.11436086585971 0.29771076643019 0.817719098165892 -0.7251018 -0.02532596 0.6881757 150 153 170
1.10904180711331 0.297931912455845 0.810082050382888 -0.8855266 0.07315232 0.4587931 113 120 133
1.07791511265245 0.23257083409233 0.794612431281429 -0.3003948 0.6077578 0.7351146 89 95 103
1.09887227043049 0.243611371481144 0.80658145006895 -0.6197891 0.2450924 0.745514 93 98 103
1.09328172516532 0.222932336266855 0.808889983686245 -0.4229567 0.5018981 0.7544574 105 114 120
1.14790847503826 0.182815770694843 0.78298189928757 0.2475514 -0.622265 0.7426335 100 107 122
1.16476981658602 0.262465580326416 0.792842703953093 0.8603451 -0.07810862 0.5036918 95 106 120
1.11913018441734 0.169253367963843 0.780647637706875 -0.002564809 -0.5827747 0.8126297 87 95 101
1.10613524295363 0.291511077559224 0.80647451901651 -0.8287349 0.01572972 0.5594202 94 96 106
1.12229362018256 0.159690614774933 0.768131240709996 0.1029081 -0.9935778 -0.0470406 93 104 113
1.15137244090994 0.299808705684909 0.801795493236374 0.7642887 -0.05586677 0.6424498 85 92 103
1.10290569659406 0.181265914995101 0.798563494836187 0.2177067 -0.4816445 0.8488948 112 121 137
1.09919824689009 0.318665777481826 0.797188517843324 -0.8059359 -0.006934599 0.5919622 125 130 141
1.07392675140519 0.194198602022576 0.798801685325614 -0.8187006 -0.1237507 0.5607271 118 123 123
1.1246237861888 0.196268892052966 0.796125399223284 0.263847 -0.4721687 0.8410954 103 116 126
1.0774283981082 0.190703798258765 0.800363104003115 -0.6757925 -0.1747184 0.7160851 109 116 125
1.12142382324649 0.20853395551146 0.804859982295076 0.2173468 -0.6042203 0.7666017 108 117 136
1.09465582401227 0.180693654773457 0.773182834463091 -0.8829429 -0.4421584 -0.1578225 68 73 56
1.15478197005192 0.281802504755803 0.799742070334949 0.7179186 0.1805792 0.6722974 164 167 183
1.15870134825419 0.208272551219471 0.795623016520842 0.6480667 0.007147029 0.7615501 104 115 133
1.13365577606482 0.236502935941484 0.816343781393473 0.09347389 -0.4402611 0.8929909 117 128 134
1.08439532819535 0.240951008607801 0.762975872779117 -0.9205886 0.009126376 -0.3904271 105 106 109
1.1595517841094 0.191094068990792 0.786276209618328 0.2526644 -0.6472971 0.7191434 158 165 187
1.15096271619039 0.284234863771604 0.803180441188861 0.7923656 0.1529479 0.5905621 144 148 167
1.11648473016124 0.310111923645975 0.816483395362816 -0.6389058 0.3538036 0.6830976 106 114 127
1.10219289019082 0.330442392985188 0.794446457381291 -0.5870904 0.6305442 0.5076798 90 99 107
1.13470344564079 0.213296894349902 0.806033086449304 -0.2200664 -0.492552 0.8419997 195 209 182
1.10843043430162 0.269610255403598 0.809248584766133 -0.6908979 0.09146199 0.7171435 187 203 142
1.16534045204037 0.300706368467224 0.780091946519624 0.8173459 0.552229 0.1642824 94 98 94
1.0908711855635 0.287576021524281 0.786813749812066 -0.7196586 0.1996171 0.6650146 84 91 92
1.16432833660557 0.265203413228655 0.793495273214836 0.8248605 0.0517464 0.5629632 121 125 139
1.08079541603163 0.264467024743927 0.784424679067997 -0.6720984 0.2957767 0.6788223 97 103 110
1.09334564544029 0.272325074385687 0.793934780154603 -0.769806 0.06364103 0.6350972 100 107 112
1.08467831770756 0.216967942766501 0.804606527463973 -0.5715068 0.1322576 0.8098691 91 97 104
1.15876595697919 0.307818891908692 0.782000970107525 0.7500479 0.6592451 0.05314136 131 133 144
1.09196080726952 0.273760245977946 0.791981778315551 -0.7857784 0.06053044 0.6155392 95 102 105
1.12909576456775 0.278127320317965 0.825107430753891 0.01534148 0.1282113 0.9916282 153 159 170
1.08365596467486 0.286895315196455 0.779301683044721 -0.7162297 0.1563092 0.6801342 97 104 110
1.08539657129476 0.187309696510243 0.803511473880384 -0.3301488 -0.5683184 0.7536682 150 156 175
1.09164901098609 0.304235182491967 0.784389058870903 -0.8867567 0.06281254 0.4579486 87 95 95
1.1235513852104 0.220130484142699 0.811405639732506 0.2777506 -0.4334964 0.8572837 111 125 137
1.1608853302729 0.228228997624591 0.792315790452038 0.8066887 -0.0839431 0.5849845 78 89 91
1.10908833837923 0.264224265880139 0.810287393903375 -0.6396081 0.1287184 0.7578476 103 111 116
1.15012208118127 0.230335499378719 0.806249368486207 0.7542398 -0.0172366 0.6563728 142 147 164
1.15834622419739 0.270179601996757 0.801498990297348 0.7794762 0.09457788 0.6192512 126 134 146
1.07575575879624 0.259149238558058 0.780503707994565 -0.8964054 0.2442587 0.3698582 141 144 150
1.14340561595112 0.321318701457671 0.789235057532562 0.3438576 0.9376822 0.05014238 160 164 172
1.12362165204062 0.325476028124284 0.787169339964131 0.3700573 0.8769157 0.3067188 80 86 93
1.11250374262845 0.25045330820962 0.816425607553673 -0.6066607 0.2114369 0.7663271 115 118 132
1.14327452804651 0.244389577529067 0.814444377042581 0.6375874 -0.1439243 0.7568145 86 96 106
1.09545994166282 0.182718100012347 0.756664040303963 -0.859175 -0.4942697 -0.132348 99 105 101
1.17092316342095 0.286217784023925 0.778153406179496 0.8457943 0.05305263 0.5308647 125 129 148
1.07734856365709 0.225592817735937 0.776275220513187 -0.907633 0.09509458 -0.4088514 100 105 108
1.09262222389609 0.273928220162742 0.79250851640793 -0.7816451 0.06325228 0.620508 101 105 111
1.15814725358439 0.253644418838726 0.799167934605807 0.8199801 -0.02662472 0.5717724 98 107 119
1.10385965718594 0.33111762029099 0.794817775354414 -0.525162 0.7084415 0.4715033 102 111 118
1.16674744717827 0.245961771814896 0.775915721609725 0.9940097 0.01522382 0.108226 93 101 108
1.09953540227477 0.306994219466438 0.7955084673016 -0.8056127 0.02599509 0.5918718 116 118 128
1.10742496224974 0.333100362536955 0.794966602577767 -0.09235556 0.8632264 0.496297 138 144 153
1.15723918047449 0.305574178159881 0.794337093054282 0.7535177 0.4587443 0.470919 128 134 146
1.07876292858272 0.250136188317317 0.773811828572343 -0.8817406 0.02297007 -0.4711749 120 124 128
1.07302861834735 0.204627470720766 0.796485543368311 -0.647571 -0.01699096 0.7618157 96 101 108
1.12674262963225 0.165397683837045 0.775890890575762 0.2052426 -0.6500321 0.7316651 97 106 121
1.09674702362212 0.248398509120906 0.803258797961905 -0.5791973 0.2099422 0.7876895 112 118 127
1.16112804979424 0.181461507869219 0.779121068268829 0.2417816 -0.605194 0.7584733 132 138 160
1.08308582557459 0.258395031121627 0.789143295981915 -0.6873927 0.2831966 0.6687982 124 125 139
1.09599261512378 0.2241147538291 0.809134979789442 -0.5052673 0.4170743 0.7554827 91 99 104
1.16085687471504 0.24804306180978 0.794351514149069 0.8627257 -0.1758598 0.4741072 99 107 120
1.16517449062267 0.28197090488805 0.785618519066059 0.8163607 0.09895843 0.5690015 105 107 125
1.09827659231232 0.321510978455214 0.79515191825071 -0.7573315 0.1788739 0.6280551 129 133 150
1.167345479588 0.296872719746038 0.784534058990324 0.8469514 0.3124897 0.4301435 148 153 162
1.07599531970334 0.242763377229759 0.786474439046832 -0.8154083 0.2278779 0.5321476 133 134 145
1.10497330282031 0.248974330840847 0.810851041747913 -0.6725969 0.1723074 0.7196692 132 136 144
1.15892724572607 0.200349174048707 0.793734370434612 0.5090404 -0.3353558 0.7927259 194 197 215
1.11041003956712 0.17689943470093 0.793083294723405 0.3975976 -0.6636453 0.6336331 103 110 123
1.17005396907728 0.28426768879507 0.779052934255043 0.8303264 0.05544015 0.5545127 75 90 95
1.08576454045603 0.229443039095319 0.799211098637142 -0.3417465 0.5588408 0.7555835 87 91 97
1.08159792504454 0.27634730091815 0.771193610181138 -0.936741 -0.07163918 -0.3426137 104 107 116
1.11343426185016 0.283335422480703 0.816191727826247 -0.6933275 -0.1130557 0.7116989 129 135 149
1.16179131479611 0.2250604018588 0.790210946850886 0.7765576 -0.001460152 0.6300446 105 113 127
1.09480552126845 0.200439912870412 0.810760931108681 -0.06161328 -0.4889609 0.870127 156 162 182
1.08601907977681 0.184463153676634 0.800568192216644 -0.2379761 -0.5540223 0.7977636 144 152 172
1.07056988952496 0.203479259382023 0.787987751402204 -0.9032847 -0.1676099 -0.3949476 144 145 153
1.12925530094807 0.228198540028834 0.812726468267896 0.2086099 -0.4022427 0.8914497 128 134 158
1.16642990864677 0.190555445446445 0.77426720258378 0.8368086 -0.4869443 0.2502731 95 108 115
1.14526458911728 0.310386200579796 0.806603947986569 0.7196291 0.363796 0.5914274 135 139 158
1.13801641360166 0.193767860846298 0.792442367148672 0.2413438 -0.43517 0.8673986 110 116 134
1.10572348017404 0.308536225755545 0.805178759232957 -0.8392418 -0.0726033 0.5388893 111 118 125
1.16130109812415 0.284822881495978 0.793899664380904 0.8047959 0.1601009 0.5715517 103 112 125
1.1174972974433 0.176427026234131 0.786269007079382 0.04247163 -0.8551102 0.5167038 75 87 96
1.08003850920847 0.222945863274384 0.770808600990092 -0.8961592 0.1276288 -0.424982 105 108 111
1.08522250027674 0.206443461329775 0.806885960963069 -0.5410472 -0.008252573 0.8409517 98 102 115
1.0977352034789 0.175827870264159 0.768401205085371 -0.8056538 -0.5466631 -0.2282135 70 81 66
1.16620132495719 0.222118471191396 0.779152079858829 0.9560765 0.1249586 0.2651475 73 82 75
1.11487017902929 0.305670442592115 0.817460351379439 -0.702917 0.2006711 0.6823773 99 106 115
1.06986242991688 0.214951014453437 0.789856184793811 -0.944304 0.2121473 -0.2515623 119 122 129
1.07962177199189 0.186620259779873 0.792542428759148 -0.6371217 -0.6074998 -0.4743627 74 82 74
1.09331459311643 0.30822372609501 0.787736377687144 -0.8631861 0.03203959 0.5038682 82 88 94
1.17006487278299 0.216255922967142 0.782557595956461 0.8985361 0.3710806 0.2343759 80 88 86
1.09410681863804 0.320696205062666 0.788139807675259 -0.9467955 0.04249366 0.3190183 99 105 112
1.09540112893124 0.322191072105497 0.791925431015512 -0.8475506 0.09411437 0.5223028 119 126 137
1.10840144928107 0.300784306676548 0.808514458561579 -0.8910733 0.001111928 0.4538579 117 120 130
1.1174321262287 0.308097115085673 0.819005629422274 -0.6580976 0.3486815 0.6673295 95 100 112
1.12571222607763 0.301598572715278 0.823166269461394 0.3316463 0.3843388 0.8615651 100 104 114
1.08995765532509 0.273794075010207 0.789414194797622 -0.7849267 0.05139783 0.6174531 119 123 133
1.11954697492697 0.158299467484193 0.767541192361297 0.06807121 -0.9897553 -0.1255021 85 91 100
1.13750727610135 0.224102868662459 0.810991060179278 -0.150475 -0.3732345 0.9154524 130 137 150
1.08587905665164 0.265295028405502 0.764634395763115 -0.8989767 0.008238562 -0.437919 107 112 115
1.13037613341373 0.245855996685047 0.820929915010004 0.1964297 -0.3772856 0.9050254 133 157 128
1.17271797746685 0.210251676882813 0.776394093606496 0.9552654 0.283126 0.0854846 96 103 103
1.1214319397276 0.160917470572196 0.773253733962698 0.006191068 -0.7793939 0.6265036 132 138 164
1.1164553724367 0.323800995006864 0.8087211534146 0.118855 0.8261868 0.5507166 114 123 131
1.15337560608065 0.182027226491857 0.781884249994961 0.1962981 -0.5949694 0.779409 93 104 117
1.11553129604572 0.275943286423084 0.81681044592947 -0.669 -0.09733561 0.7368615 105 119 129
1.1259810697125 0.215405698325021 0.807440022293443 0.2340979 -0.5103742 0.8274759 92 115 108
1.13452268898742 0.164677990760127 0.77260970576396 0.2348567 -0.7143644 0.6591858 108 121 142
1.15129791386595 0.247436203561659 0.807773204070006 0.7117411 -0.09538113 0.695936 115 124 141
1.09096777066657 0.282429581799711 0.788726889803864 -0.7119898 0.2151583 0.6684142 88 92 94
1.15042413174443 0.227007266241939 0.806361001072879 0.7478536 -0.1212709 0.6526932 131 139 154
1.14359430473366 0.173384866602877 0.775356702774859 0.3459865 -0.5732586 0.7427436 92 100 113
1.08841889082164 0.311813550258886 0.77557444125075 -0.8722782 0.1428019 0.4676948 90 98 101
1.10132509733317 0.329799990792592 0.794946050726389 -0.6453794 0.5404271 0.539837 104 111 119
