ply
format ascii 1.0
comment File exported by Rhinoceros Version 7.0
element vertex 493
property float x
property float y
property float z
property float nx
property float ny
property float nz
property uchar red
property uchar green
property uchar blue
end_header
1.19990858405786 0.342623656256035 0.770185401748253 -0.1926809 0.9026522 -0.3848287 167 167 166
1.28998371069408 0.261465597022158 0.784201137296431 0.6337143 0.3048835 0.7109517 138 147 152
1.25454377665771 0.321888988498923 0.766557288231712 0.6299573 0.7714221 0.08978675 136 142 151
1.26531495812595 0.223283676317358 0.819799284972939 -0.3316175 0.07202446 0.9406606 151 156 165
1.20173329865721 0.318148928822308 0.793167602359249 -0.5034221 0.2491596 0.8273364 138 148 158
1.26617509844335 0.1847946307104 0.816746482418965 -0.1212402 0.06005251 0.990805 174 178 186
1.27502230304718 0.263418394426545 0.809932621127172 0.6925424 0.1198613 0.7113497 171 178 184
1.22381791147624 0.2872568946098 0.811912807137244 -0.3648849 0.1427691 0.9200413 194 198 204
1.20695618332182 0.295356776705945 0.801509794264706 -0.4074701 -0.01847195 0.9130317 189 182 176
1.24143535550347 0.229026111309022 0.809805604159717 0.03015386 0.3388887 0.9403431 172 175 179
1.27887550634184 0.274030294230101 0.80040690425104 0.8628563 0.3772547 0.3363895 167 173 181
1.27616481710189 0.209711842234968 0.823541130726007 -0.2605352 -0.05625731 0.9638239 157 166 177
1.2274457627353 0.278735746479607 0.813646565970134 -0.2716241 -0.2228444 0.9362482 211 187 165
1.21267741755752 0.186413204766359 0.804051882997689 0.1793763 -0.7979377 0.5754299 167 179 185
1.1827966774544 0.318070593952534 0.784988928090285 -0.1534693 0.2993661 0.9417149 163 170 178
1.26903506538242 0.297981290108224 0.797775064015085 0.8539323 0.3568273 0.3787796 150 157 160
1.29445468556083 0.187524164895524 0.785609287133733 0.9458522 0.2919685 0.1418383 182 183 188
1.19418637851168 0.213464112717399 0.806656531938812 -0.2208665 0.09144179 0.9710079 194 198 209
1.2145916115478 0.224550222488974 0.807158910198755 -0.1678251 0.1000283 0.9807289 245 205 203
1.20389945034295 0.345241535820646 0.778283601583565 -0.3995938 0.8560402 0.3279025 195 195 199
1.24064247733556 0.27461563302983 0.818897099996454 -0.3713011 -0.1977128 0.9072183 185 187 193
1.25426975276024 0.316008416649773 0.797812432478884 0.5824509 0.7911838 0.1864918 127 134 139
1.2250811870616 0.330708465184369 0.757176676432207 0.4247503 0.7935552 0.4357262 187 187 191
1.23398513548607 0.294220786102415 0.814350780329696 -0.3707734 0.2168829 0.9030442 231 204 201
1.26426989127976 0.273246280473304 0.817751015866457 0.4281435 0.07667298 0.9004523 193 194 203
1.27921617023191 0.162381271187427 0.799025739869511 0.5164191 -0.3386878 0.7865125 165 171 185
1.29247441039597 0.214304971962692 0.778491348193868 0.7543734 -0.03427214 0.6555502 131 138 146
1.21625493903172 0.193977739986336 0.805288322859317 -0.2140049 -0.1132776 0.9702423 184 187 196
1.27694323826822 0.279883839513518 0.798366648972452 0.833616 0.3596619 0.4191989 171 176 182
1.23062144707625 0.278891829340637 0.813826994218218 -0.3591318 -0.1844182 0.9148849 162 152 129
1.26211977622936 0.212478084819197 0.817358843856287 -0.5252275 -0.201115 0.8268548 198 178 168
1.18017657444166 0.227094901089788 0.801919369395797 -0.5061412 0.1042449 0.8561274 165 170 183
1.25404457064991 0.184375615335874 0.818018896550092 -0.1624224 -0.08570256 0.9829924 188 192 203
1.26519423803279 0.251841236696433 0.818852969331475 -0.2006465 -0.008265224 0.9796289 222 224 235
1.28123831688694 0.172294194898828 0.805026600658028 0.43697 -0.6966797 0.5689417 160 169 179
1.26874818077321 0.282265946007862 0.807634214552486 0.8179587 0.4179957 0.3952508 156 169 173
1.25375171653373 0.296006758199136 0.814558427019484 0.03961335 0.4089355 0.9117031 187 190 196
1.29612266285178 0.21612504397315 0.800281564597936 0.8343214 -0.2753805 -0.4775702 145 147 143
1.25029485175705 0.270663770667672 0.821296112759178 -0.07313934 -0.1506348 0.9858802 221 223 233
1.23990669901266 0.331525788676105 0.762894620800096 0.4025792 0.7988018 -0.447041 173 174 172
1.2850780052231 0.160029412917953 0.792935033955758 0.737047 -0.5304406 0.4188012 182 184 189
1.2737265891825 0.304317429279121 0.777224076050842 0.7729061 0.6314343 0.06250443 128 133 128
1.28173215509416 0.28859825272119 0.78704785143285 0.6418816 0.2884731 0.7104725 151 156 165
1.26081914656523 0.31410765971715 0.774231595819951 0.5714445 0.8111043 0.124744 158 161 169
1.25590637648852 0.192768371756823 0.817436232802757 0.1175702 0.08318482 0.9895744 194 198 206
1.29905165965783 0.210673461437149 0.816776157533818 0.6027116 0.07942802 0.7939962 193 193 199
1.29063306876734 0.198207256027344 0.819932106065875 0.3552979 -0.09001544 0.9304088 201 203 213
1.19006868891069 0.315493410399221 0.786528907056756 -0.3867172 0.2407577 0.8902166 183 184 190
1.18362111624492 0.219830101944815 0.803543466319538 -0.4324054 0.1456822 0.8898327 175 178 186
1.22892936462241 0.339114387433623 0.775659439991427 0.5448312 0.8333113 0.09354817 145 151 152
1.17640620061378 0.289633561508507 0.792800361678759 -0.4031927 0.04035177 0.914225 195 198 210
1.24083937286612 0.171235729544103 0.811741086211608 -0.3782409 -0.2933058 0.8780122 199 200 213
1.25239108234832 0.314465312087841 0.804325058851696 0.2934636 0.7149144 0.6346468 189 191 199
1.29180238022019 0.218292744260198 0.816919374840539 0.3335342 0.2853934 0.8985018 162 167 174
1.21580542447696 0.217246155508825 0.807895430948302 -0.09230056 -0.02482558 0.9954216 214 215 226
1.17971804885365 0.222029450821864 0.801074941990376 -0.6938933 -0.003241004 0.7200706 188 190 194
1.26270763959143 0.191251133465847 0.816420106590955 -0.1771261 -0.07301742 0.9814758 168 173 183
1.27954883920673 0.250898696958614 0.809284936938937 0.7245179 0.4140633 0.5510222 179 182 189
1.21606848691011 0.311923939458882 0.801239587733827 -0.3645222 0.2514087 0.8966143 176 181 189
1.24363213954697 0.303243023683374 0.810829715024672 0.05439876 0.6335944 0.7717506 159 167 172
1.24080759136606 0.246812164919092 0.807199596092441 -0.2377212 -0.0009918216 0.9713329 186 187 197
1.26655468765624 0.293589993834202 0.806704039375297 0.8402454 0.2558621 0.4780401 179 182 189
1.26778320388136 0.304033559235229 0.793195276529255 0.6352317 0.6681551 0.3873622 147 155 160
1.26010636078411 0.164191249663448 0.784159472785889 -0.824142 -0.2684852 -0.4987039 164 170 174
1.23529612060176 0.265759500555629 0.810961310665688 -0.3701035 -0.4273295 0.8248714 144 147 159
1.23831956018386 0.288714560200567 0.81674829912737 -0.3830017 0.1779117 0.9064531 186 190 201
1.22986589120092 0.20052010255051 0.807807082385253 -0.09782074 -0.2175012 0.9711459 214 198 202
1.26604188259531 0.153607092845378 0.794388087296872 -0.1534315 -0.915051 0.3730153 188 193 204
1.20390214888819 0.208917275802585 0.807450137130762 0.1008702 -0.1144207 0.9882981 192 197 207
1.22095792048734 0.267131856389614 0.804504666255517 -0.3652836 -0.1521993 0.9183699 126 130 138
1.29002516601588 0.193526676337478 0.785100162384345 0.8240389 0.3994651 0.4017307 165 168 171
1.25108660811914 0.252434297875022 0.812736882515988 -0.2779952 -0.199588 0.9396187 206 208 218
1.2620421746493 0.228054872676159 0.818090854933833 -0.3338438 0.1855476 0.9241863 219 185 176
1.1972415415025 0.338655312165757 0.781153279345627 -0.4966061 0.5819546 0.6439808 162 168 174
1.21650559644328 0.190545064509522 0.80416215684856 -0.2252461 -0.05490701 0.9727535 161 170 181
1.2633158926636 0.277543648808784 0.817904242530439 0.5034166 0.1391865 0.8527595 184 184 190
1.26540872608886 0.164868975875377 0.815680764487028 0.1414108 -0.5942461 0.7917541 191 197 209
1.26654678007523 0.183993885280235 0.816744539126192 -0.1300983 0.08493794 0.9878563 180 185 190
1.28453467053025 0.29677374030494 0.779611261794678 0.7195061 0.3246253 0.6139457 189 191 198
1.29797126408628 0.238841120254628 0.79639756268482 0.9334459 0.270208 0.235937 181 179 183
1.2846102221967 0.287719004660499 0.783290877644603 0.7850629 0.2306405 0.5748749 176 178 188
1.18861482624853 0.31453402965612 0.786760445513996 -0.323388 0.2761288 0.9050818 182 183 189
1.29640346371202 0.234457405207146 0.800568793370695 0.6584058 0.5587923 0.504235 187 189 193
1.25912772003946 0.252350177493063 0.815599989666269 -0.4724961 -0.2114244 0.8555975 156 163 172
1.21912903140934 0.189868453940358 0.805555273271587 -0.2820839 -0.05413736 0.9578611 196 198 210
1.21662932166341 0.185699761164228 0.791202507434513 0.6635825 -0.7008134 -0.261761 158 163 166
1.2679756934064 0.239395836354074 0.820006266274726 -0.3490402 0.02072779 0.9368785 165 171 179
1.2272477828344 0.329419144212492 0.756562319201976 0.2495538 0.8782042 0.40802 185 184 183
1.2171943123328 0.185281029544537 0.802636502906159 -0.5380421 -0.391706 0.746376 140 147 158
1.20452291098162 0.187481087258677 0.801215910830574 -0.4863981 -0.5226786 0.70016 137 148 156
1.29545139345083 0.216083337569344 0.790047604694494 0.6381917 -0.6373393 0.431868 141 147 153
1.29642454004879 0.237999944301848 0.777612285852576 0.9154788 -0.3744847 0.147173 159 164 165
1.219522783318 0.218750767321926 0.807891513988387 -0.2764599 0.08672446 0.9571044 211 213 222
1.19602797980804 0.332173218880058 0.784290877738141 -0.4022459 0.4332123 0.8065515 195 198 203
1.2217188374801 0.330272140536538 0.792082821032763 0.2460447 0.5953612 0.7648575 179 185 191
1.18174325628851 0.315031977678286 0.785416767167685 -0.1428932 0.4113191 0.9002212 184 187 196
1.29101190320616 0.1984672377103 0.781730889750925 0.9190096 0.3370264 0.2045352 141 147 156
1.26145597995207 0.158118140887405 0.802352561171976 0.0302863 -0.9275984 0.3723492 169 176 186
1.24165172340129 0.239202384018462 0.807015817460775 -0.2192444 0.03944442 0.9748724 160 165 174
1.18202535908464 0.296265885558565 0.764981249250077 -0.8711662 0.04449575 -0.488968 140 144 145
1.25956748749866 0.273359953983161 0.818818680952116 0.2054906 -0.03475658 0.9780417 170 178 188
1.27447879017443 0.198264194796867 0.82137078828074 -0.0440702 -0.2823537 0.9582976 174 181 192
1.26215263572361 0.226687702117469 0.818131125950452 -0.3171017 0.1852791 0.9301173 210 184 178
1.25922995560087 0.192335254722263 0.816562098474176 0.1129318 0.0188485 0.9934239 181 185 196
1.29761309771875 0.224885943008412 0.8145399590831 0.3728457 0.4172597 0.8287824 207 208 211
1.28305987170444 0.304689578114335 0.768384787087342 0.4131747 0.8960426 0.1624634 179 182 190
1.29222105121893 0.207755927668586 0.817928204756269 0.2234021 -0.04579553 0.97365 215 217 225
1.22583424679532 0.332938317796518 0.788194791379877 0.2905266 0.7310689 0.6173593 175 178 186
1.28680561562928 0.170393273317677 0.79822988040587 0.5941189 -0.4674781 0.6545892 173 182 189
1.27301864832675 0.233799319502335 0.821181836798677 0.008093245 0.1865567 0.9824108 190 194 201
1.27850102111696 0.234897144947375 0.818448582855523 0.4968402 0.2660786 0.826046 140 147 161
1.22580389983408 0.215918661043636 0.810647045021185 -0.1539343 -0.01172105 0.9880115 208 210 219
1.26794415476404 0.157835019788026 0.804379698207934 -0.0124544 -0.8158565 0.5781202 156 164 178
1.18861967249916 0.189720491502769 0.802203138260007 -0.1489278 -0.7393114 0.656688 147 160 171
1.18258218641473 0.313952659170775 0.786539433500542 -0.06306455 0.363094 0.9296159 178 182 188
1.24930283819515 0.157064783664286 0.800108505018929 -0.2604198 -0.8881719 0.3785926 179 185 197
1.25212439354748 0.217285322496113 0.813261236604114 -0.4548034 -0.1458782 0.8785633 141 152 164
1.29120480691878 0.209756580964301 0.780533632001623 0.7725361 0.2104582 0.5990787 127 133 141
1.21288283124444 0.289826461581067 0.806291925179319 -0.530952 0.2013993 0.8231211 190 189 195
1.27985977423619 0.276775225969791 0.791234179273508 0.9097997 0.2408184 0.33804 178 182 189
1.25576132777014 0.324536361634717 0.757706388599056 0.4052536 0.8973059 0.1749616 178 178 181
1.28617617626403 0.161306069748967 0.790183351278486 0.8436626 -0.478666 0.2431302 179 184 190
1.29020274610934 0.248666761880852 0.768754350522315 0.04992557 -0.0543502 -0.997273 185 180 181
1.19442466879328 0.266267241154189 0.797470216360149 -0.4557506 0.2084155 0.8653637 152 160 163
1.20866728741611 0.184608598247029 0.798767646551302 -0.22512 -0.9722626 0.06345434 163 170 182
1.19140847631669 0.249612183707714 0.799529838334925 -0.3948863 0.1986722 0.8969917 165 167 175
1.18800537957823 0.23199055516975 0.802533434537532 -0.163545 0.03850473 0.9857842 174 180 186
1.26784409386038 0.295884233366684 0.801774176949414 0.8346628 0.3059175 0.4579875 171 175 181
1.20345925798263 0.261038568042242 0.802882459352425 -0.2438467 0.1445797 0.9589763 234 196 190
1.28512173021511 0.184753296562336 0.817910295845558 0.6054846 -0.4598536 0.649556 170 176 188
1.246511658791 0.180345259942691 0.813776096054741 -0.5615108 -0.1642682 0.8110003 189 193 203
1.29307599710011 0.230021702616729 0.781479647875764 0.8200562 -0.2895386 0.4936346 137 146 157
1.20060445849022 0.26121030268591 0.801961453030776 -0.2917084 0.1485339 0.9449041 181 181 186
1.28236576748282 0.191880795176236 0.820515654508797 0.0110718 0.03068188 0.9994678 201 205 217
1.24175503698454 0.176283011557498 0.811697644346627 -0.3628415 0.1708255 0.9160594 185 189 199
1.18127248961184 0.194793203663235 0.805304099104474 -0.4300273 -0.5694881 0.7005425 214 216 225
1.2545127666346 0.221773056066001 0.814380713781028 -0.4718395 -0.005551685 0.881667 193 194 202
1.25274109409366 0.254071792064152 0.814212841743366 -0.3364034 -0.373545 0.8644634 170 184 193
1.16972912526424 0.269201732438399 0.788312538644344 -0.5968841 0.04959926 0.8007929 192 195 202
1.28245068095418 0.209665521917495 0.824480921327163 -0.06758212 -0.1720593 0.9827656 173 182 191
1.21894501752164 0.210325893964207 0.808784450519824 -0.3617361 0.04260386 0.9313065 214 189 184
1.21381130193729 0.187379108543197 0.804206358053482 -0.02981468 -0.9781258 0.2058664 131 142 156
1.25075584156866 0.28221137503379 0.818991441330582 0.1551538 0.2424922 0.9576663 197 199 211
1.21886305580824 0.183770693129807 0.794042336027203 0.5972732 0.1390843 -0.7898862 174 178 183
1.26447338546129 0.317662724013772 0.759709423132857 0.7439819 0.6429456 0.1819664 174 178 181
1.19776389710603 0.200587479248655 0.807001965873491 -0.1102358 -0.07066546 0.9913902 204 207 219
1.28446600504062 0.198785118720216 0.820409054999423 -0.009881433 -0.1377468 0.9904182 174 178 190
1.19023926783647 0.247070408649138 0.800049912881859 -0.3725851 0.1718827 0.9119412 166 170 176
1.2371129466692 0.312857652448394 0.802987115500589 -0.1584368 0.4817733 0.861854 181 182 190
1.17064217783078 0.280071454254304 0.789870087898056 -0.5050027 0.01434405 0.8629986 191 193 203
1.23599382073946 0.242653634250668 0.806258091310011 -0.00450449 -0.001499434 0.9999887 194 197 205
1.30092962483266 0.213553443715538 0.805612421035075 0.9834169 -0.07814565 -0.1636597 187 187 190
1.28759608620569 0.162868333874646 0.790779412081223 0.7825149 -0.5987222 0.1708864 190 191 196
1.26077600689904 0.157766308622732 0.785526780233356 -0.8245758 -0.228481 -0.5175627 176 181 181
1.19547825861481 0.273780017789951 0.797399750476682 -0.5158885 -0.02453918 0.8563042 172 166 162
1.27026216209711 0.196157938474313 0.819454940520057 -0.3371912 -0.1987535 0.9202169 188 190 202
1.27867886928609 0.239016949771002 0.817094259027809 0.5383498 0.2858442 0.7927626 164 170 177
1.28608901436657 0.176569199598004 0.804374030073693 0.7133193 -0.4824195 0.5083769 166 173 182
1.20821573719826 0.302234845444957 0.801414478491936 -0.3032022 0.1921572 0.933351 178 181 190
1.20003993825806 0.263771922119623 0.801037525527841 -0.3174701 0.2637212 0.9108589 179 180 187
1.17466894380029 0.286275901384591 0.791442045905446 -0.3991147 -0.00945125 0.9168523 152 160 173
1.29382706312243 0.238755458514069 0.77157366094109 0.3568558 -0.6922378 -0.6272646 177 171 172
1.28939359617256 0.182520743143223 0.806778823491048 0.6543723 -0.6086304 0.4487382 181 186 195
1.27793059878915 0.171004051816626 0.809246469874212 0.6198732 -0.6894808 0.3746644 156 163 175
1.28800105205152 0.281298069583268 0.778985951607683 0.5359785 0.4738068 0.6987376 167 172 178
1.29795188073601 0.231123956232542 0.804657062374568 0.7521569 0.6436108 0.1415107 173 174 177
1.28064960593832 0.160818742878881 0.797776555805574 0.5708706 -0.484361 0.6629488 175 182 191
1.27303949611889 0.304924407168974 0.778134745416462 0.7393288 0.6729134 0.02409311 132 135 137
1.27331398024973 0.257005787691972 0.813007829539605 0.7052113 0.3485614 0.6173994 154 162 172
1.28360218464924 0.252915310347557 0.803852573069519 0.6062565 0.3515478 0.7133493 191 194 201
1.2619183335148 0.25118247810201 0.817524513001499 -0.5096235 -0.1250068 0.851268 183 189 201
1.27411840164404 0.184874492289851 0.819481641064837 -0.3028572 -0.07566019 0.9500279 133 144 157
1.23805495903997 0.327778184552434 0.793652945596503 0.0307744 0.7590764 0.6502738 154 161 167
1.21585864451704 0.334478037877763 0.76121061297052 0.5245466 0.8508034 -0.03137423 183 184 184
1.24921226926051 0.324913514890888 0.786898676436095 0.6573212 0.7522734 0.04487177 176 180 184
1.28858048285312 0.180288384724122 0.806404047068956 0.6899417 -0.5315324 0.4913794 187 192 200
1.27331069648652 0.177140982588489 0.796219371399336 0.7885767 -0.3539757 0.50284 170 177 187
1.2477500145041 0.325315925870169 0.77251460780435 0.6244218 0.7520737 0.2109088 134 136 140
1.26472855913473 0.313837771597684 0.766793147364376 0.5147665 0.7726565 0.3715069 154 160 165
1.17208947309622 0.253561360063546 0.790686885142757 -0.513643 0.09396628 0.852843 175 177 180
1.2300808948145 0.338202841340822 0.778150165177291 0.506394 0.8450354 0.1716981 182 183 188
1.21641539331535 0.327331605311726 0.794783952850823 -0.1942544 0.4709746 0.8604929 205 207 216
1.18223333190692 0.316289114633659 0.785336144498519 -0.1429157 0.3757521 0.9156339 171 177 185
1.22685449519102 0.180797187346241 0.807007017705532 -0.439158 -0.7179595 0.5400689 196 197 207
1.29567589615858 0.263704040887309 0.77828468421409 0.7925149 0.3635001 0.4896813 165 168 172
1.28241733056862 0.168858677259314 0.80106947485583 0.6632941 -0.5050817 0.5522078 177 181 192
1.26280643115675 0.274967097460412 0.818472493039835 0.3623781 0.04164364 0.9311004 198 199 205
1.19294307873578 0.214710979496595 0.806652254524159 -0.0480084 0.1481421 0.9878001 190 195 203
1.29889125993242 0.222779609550058 0.81449181360076 0.4799079 0.3028875 0.8233757 189 192 197
1.25123532086321 0.192822485868362 0.778863860149791 -0.8214205 -0.4844399 -0.3009757 111 119 120
1.29468172299292 0.223546916452867 0.775405784264055 0.9550682 -0.1622624 0.2480236 152 156 161
1.23136645049344 0.335608269444411 0.780672450771318 0.4897963 0.8132753 0.3141382 160 165 169
1.1816956479985 0.242605902547619 0.777909580736273 -0.3185011 0.3123101 -0.8949969 143 146 145
1.27182139282796 0.266249980935254 0.81178254757815 0.6929082 0.1236222 0.7103491 152 161 170
1.18963854442608 0.319453216572412 0.786632820126377 -0.4019608 0.1624812 0.9011256 146 154 163
1.25350388845501 0.294922987453308 0.814357659554894 0.03704211 0.3987963 0.9162911 192 195 202
1.22350956762685 0.19425110262133 0.806795620289274 -0.2199615 -0.07200597 0.9728474 189 191 201
1.24829131537574 0.268188014983836 0.819776918628217 -0.4477312 -0.3482603 0.8235602 204 206 216
1.21239301878327 0.183856081993947 0.797526341267628 0.0337519 -0.998702 -0.0381451 160 165 175
1.20094608049847 0.21734297674535 0.806103530045453 -0.1098828 0.1285775 0.985593 205 203 214
1.20285751791345 0.229670228434236 0.80400021259621 -0.184867 0.2202289 0.95777 194 197 207
1.26590906231791 0.316119746617841 0.760304258006991 0.7349477 0.6436844 0.2133591 164 170 174
1.22825665504467 0.286780992182593 0.814030646365694 -0.2487263 0.1611622 0.9550717 188 190 197
1.23287774431121 0.254070629518221 0.805604887855423 -0.02252824 0.02785317 0.9993581 144 139 142
1.25856249325062 0.167936229649438 0.817606280080603 -0.245721 -0.3965003 0.8845387 203 205 212
1.28914202044814 0.268856498168033 0.782598717591541 0.6928036 0.3037434 0.654036 185 187 194
1.22150047323045 0.184224098296126 0.80317477325652 -0.6354742 -0.2325123 0.7362816 180 189 198
1.20069397275025 0.215224990482785 0.806003229532119 -0.1178848 0.1376692 0.983438 156 162 170
1.18995559536745 0.23405544238185 0.776311436399898 -0.6672165 0.0650241 -0.7420202 149 155 160
1.22774357691072 0.192802827169186 0.807025188350979 -0.3057892 0.02145861 0.9518574 168 175 188
1.30057842095145 0.222520554283366 0.804160082974221 0.9980213 0.05249546 -0.03460759 158 163 166
1.19411828195002 0.196809272856372 0.807106412288273 0.2970879 -0.1240255 0.946761 182 189 201
1.23378500925605 0.279322988824161 0.816521318396565 -0.4480862 -0.06298767 0.8917686 175 177 179
1.22409089076287 0.216058517245092 0.810425058312133 -0.2525691 0.04616477 0.9664769 206 207 215
1.26279804649972 0.28541125193713 0.815451906345241 0.5486749 0.3222073 0.7714521 177 183 191
1.17101840412529 0.25291940445806 0.789344720076192 -0.6397671 0.06208726 0.766057 187 188 190
1.28082711997538 0.276978622809366 0.792163097223858 0.916456 0.2294418 0.3278183 159 170 173
1.18145129689964 0.295637015971692 0.79238788832985 -0.2261793 0.4398369 0.8691297 180 183 189
1.26761209005334 0.242174061847862 0.819734158379978 -0.3148239 0.03420058 0.9485337 168 178 187
1.25052004049149 0.253645487406394 0.812116075739724 -0.3485144 -0.2495233 0.9034798 188 196 206
1.25570736692767 0.233480049918878 0.814117232863933 -0.4073138 0.1406909 0.9023866 155 153 150
1.2300115725253 0.321011738456085 0.798399032073408 0.162969 0.5372666 0.8275178 173 178 181
1.27087117229901 0.214932387899356 0.821434760419902 -0.273547 0.04895397 0.9606121 175 180 189
1.21793353695465 0.18181532005055 0.801539333822613 -0.4886957 -0.4028521 0.7738777 171 178 189
1.26940007975967 0.186255743826619 0.817740576815426 -0.2988877 -0.05366367 0.9527782 144 152 165
1.29437529246806 0.190105149143572 0.78371829086308 0.9547748 0.2867024 -0.07878345 162 165 166
1.28580573174565 0.162343367538896 0.794041949925506 0.7555235 -0.4476832 0.4782928 168 170 177
1.28878626789408 0.210289656544189 0.783009518571213 0.8752235 0.1760815 0.450532 142 148 154
1.297226098431 0.19583781114791 0.813318866100044 0.7544224 -0.5026381 0.4221395 190 191 197
1.1846332506446 0.236616268253923 0.779614846617782 -0.8698063 0.1407085 0.4729039 134 145 149
1.26595916160444 0.246401834284481 0.818725620505213 -0.2231613 0.01948979 0.9745867 161 167 178
1.18153225895657 0.271794945829504 0.792380092724188 -0.3448404 0.06299113 0.9365454 191 189 199
1.27365801886974 0.307029454568908 0.771724155453588 0.242959 0.8277466 0.5057731 155 157 159
1.19961957771865 0.187808211404822 0.798517716901899 -0.1051133 -0.8943412 0.434862 190 196 204
1.27945814092271 0.300586036385695 0.783438233430617 0.6383204 0.6164756 0.4609826 170 176 185
1.24544181442619 0.262974299488214 0.815217701662857 -0.4549738 -0.262998 0.8507825 172 170 167
1.25329005907866 0.176275886727922 0.816271605068299 -0.312245 -0.09759244 0.9449756 169 173 185
1.28202329085991 0.253328541689183 0.803876351360644 0.6342535 0.3361785 0.6962087 198 199 207
1.1832490207536 0.330553071349599 0.780603305607383 -0.5487512 0.5214235 0.6534445 190 194 198
1.17723098848229 0.307432245540142 0.7700615160183 -0.8752832 -0.01676312 -0.48332 155 162 160
1.29396017307038 0.188156336541684 0.794236090467217 0.8264109 0.5421834 0.1519283 141 149 157
1.26103443271329 0.233191847776194 0.816267976770202 -0.4445551 0.08483435 0.8917252 209 182 172
1.2138208455025 0.289441227706178 0.80702644430483 -0.5069566 0.2063321 0.8369122 184 184 192
1.19729504996887 0.188454942310552 0.799305153988546 0.07350294 -0.8679143 0.4912455 154 172 181
1.26251420068499 0.152809420058209 0.791411508810044 -0.447358 -0.8587765 -0.2497473 166 171 182
1.29567810915849 0.196217210444374 0.816017311143685 0.6599448 -0.5386432 0.5237713 189 192 199
1.2585502509686 0.25862539822682 0.816877466523831 -0.03544832 -0.2999825 0.9532859 188 190 199
1.24272135822759 0.231590873343655 0.809097439388988 -0.08860098 0.285228 0.9543557 208 176 166
1.24697133396627 0.217659789242256 0.810932755951147 -0.1288849 -0.1821773 0.9747821 161 167 178
1.17737272087919 0.263337138422497 0.792831600699621 -0.3195263 0.1512409 0.9354299 202 206 213
1.23759752596129 0.29677659874099 0.814696011090839 -0.2207589 0.3240997 0.9199048 216 217 225
1.268004983179 0.234883336419933 0.819766437012382 -0.4255639 0.02845966 0.9044808 194 197 206
1.23787353986319 0.316006804616417 0.801809616144027 -0.1915131 0.5131738 0.8366453 164 167 176
1.27666174300763 0.173604075108347 0.813465252705396 0.4472132 -0.7027069 0.5533564 172 179 189
1.19438534209174 0.308087154048423 0.792659012917202 -0.5161676 0.274638 0.8112614 181 185 191
1.26615716037476 0.163565527086114 0.81330153382274 0.2147295 -0.7153955 0.6649064 177 185 197
1.28891803257311 0.204802415401851 0.787224401536664 0.9912257 -0.02985618 0.1287647 154 159 164
1.2515224746415 0.171644645592494 0.815573385853035 -0.416938 -0.1511278 0.8962829 188 193 202
1.24719682376536 0.286052192684198 0.818502989533961 0.09163016 0.2461471 0.9648914 190 193 202
1.22480282341992 0.242576544492996 0.808403024078374 0.0149942 0.1295911 0.9914541 206 191 187
1.18768054112594 0.297862385490242 0.793161127367635 -0.3233255 0.3865063 0.8637555 191 193 203
1.23110124058274 0.333404067930747 0.786538690531212 0.2409393 0.8198479 0.5194205 162 172 175
1.19894955634458 0.193073055039155 0.80518819244433 0.4370871 0.3562662 0.8258506 201 207 215
1.2783178882689 0.171614601303634 0.807653533095258 0.6391377 -0.6573203 0.3992907 159 166 177
1.18265603483753 0.221839810654875 0.802949991480511 -0.47629 0.06037066 0.8772133 171 178 186
1.17988093641383 0.250144195189047 0.795982735630287 -0.5287527 0.1529963 0.8348728 206 206 215
1.2653844868751 0.219127237168773 0.820111607971053 -0.4078742 -0.05476568 0.9113942 158 159 174
1.20375219507035 0.283712447408188 0.801110556388825 -0.5109165 0.05233459 0.8580358 171 178 184
1.20528314423551 0.33866876843282 0.784581058250919 -0.2956435 0.4919756 0.8188741 144 149 155
1.24785166802876 0.235841793341505 0.809755864905451 -0.4420695 0.05575436 0.8952463 235 189 175
1.20416971185094 0.253698077523113 0.802875433146461 -0.295756 0.0234126 0.9549766 221 198 194
1.26632117886061 0.208134973015221 0.817782865486389 -0.3539211 -0.1288216 0.9263611 169 177 187
1.27095905641897 0.249214716934482 0.818477248690689 0.2678879 0.1395703 0.9532871 205 206 213
1.22771582480758 0.25718229151778 0.8066535819334 0.01374469 0.02068288 0.9996916 243 200 188
1.27961726354901 0.23780336149435 0.816969385042095 0.5157803 0.2962823 0.8038579 156 162 167
1.19056810138514 0.277443789289004 0.795974950335055 -0.3656743 -0.1805127 0.9130704 191 186 190
1.27151079177026 0.154118833506755 0.79857404853492 0.02909228 -0.8481516 0.5289542 202 205 216
1.23496558593961 0.326458074562893 0.7561515887754 0.160434 0.7682276 -0.6197478 177 178 178
1.25281949939007 0.177805612114147 0.817245191612497 -0.2898152 -0.1445364 0.9461059 187 192 200
1.1808524811088 0.265062143874262 0.793321632612118 -0.1640789 0.1055625 0.9807827 176 180 188
1.29404740364052 0.200449188456443 0.798316476864475 0.7591599 -0.3826534 -0.5265479 154 158 162
1.25001829285975 0.259033841351208 0.81616589699849 -0.4115788 -0.4973304 0.7637181 187 192 202
1.28199744514705 0.21278067910914 0.824888305678315 0.04747597 0.07307199 0.996196 201 202 212
1.18707877123163 0.209404818719944 0.806767296716172 0.03455974 0.1355233 0.9901713 172 178 187
1.24554974282985 0.327135517570006 0.789219514685156 0.4989631 0.8530357 0.1528589 178 183 187
1.19456368729956 0.189165580126828 0.802466230427619 0.06382258 -0.7614152 0.6451151 180 188 198
1.19530659563403 0.324273453872544 0.786832954573559 -0.4039339 0.375453 0.8341897 161 168 171
1.2188221137491 0.23713675856146 0.807560394806499 -0.3058829 0.1200572 0.9444691 229 202 195
1.2910757360535 0.203293980155629 0.795370982020301 0.7917339 -0.1900634 -0.5805457 125 131 128
1.28716036207483 0.24536649076185 0.804180467545566 0.677891 0.2634805 0.6863249 181 184 192
1.21462808816239 0.291357841049107 0.807375935887524 -0.4365386 0.2707969 0.8579645 192 196 204
1.25507441588344 0.154228112023236 0.795367200699466 -0.1920073 -0.9755714 0.1067412 185 191 197
1.21743211307893 0.288718756205212 0.809030915485265 -0.4223476 0.2230184 0.87857 200 201 210
1.18356052226789 0.283953079889482 0.794588585911541 -0.3489901 -0.1251367 0.9287339 183 188 197
1.18598752751302 0.333453314047763 0.771339440239376 -0.7416517 0.5514357 -0.3819311 177 177 176
1.27459521803558 0.309020727239381 0.762346356346532 -0.5671161 0.01419883 0.8235155 147 153 155
1.2559788396438 0.259137052677574 0.818185095853224 0.03246127 -0.4054236 0.9135524 196 199 211
1.20321704063458 0.187487743695253 0.80035372966708 -0.3962846 -0.6743084 0.6231104 116 134 147
1.23422552115979 0.204945305633658 0.80948255705811 -0.09564804 -0.1124953 0.9890381 211 195 186
1.19925157145761 0.334119706342736 0.784849560090049 -0.439665 0.4111091 0.7985512 153 162 167
1.27876257194687 0.255323112905614 0.807103259713606 0.7392263 0.3274798 0.5884737 180 183 190
1.24282430960184 0.16325156581628 0.802377015036597 -0.6311482 -0.7594137 0.1579331 177 183 187
1.24383398410387 0.183215131068699 0.812349437975621 -0.5232229 -0.1349333 0.8414457 198 198 208
1.18958421955414 0.256771320760253 0.797311576814829 -0.3915774 0.1603559 0.9060647 136 142 151
1.23352963920799 0.246043609802807 0.806433392321417 0.146981 -0.01177099 0.9890693 195 193 195
1.21482712105869 0.334472921174304 0.761366746438663 0.4308613 0.9021198 -0.02320426 186 187 187
1.27119442406834 0.302371808956868 0.791520020718937 0.7106817 0.4645357 0.5283352 157 158 167
1.29339204849948 0.228147006575933 0.813118548558955 0.2189254 0.4261346 0.8777705 143 153 159
1.24639469492552 0.178368114068327 0.812881096191465 -0.5459226 -0.2364187 0.8037878 157 161 174
1.27491895033648 0.236445598016948 0.819825200086076 0.3180576 0.2504562 0.9143911 147 154 165
1.28096002682884 0.188609132208455 0.799095226338112 0.5995614 -0.6665416 0.4429994 183 188 196
1.23612654049359 0.237114980069612 0.807737879211377 -0.009804124 0.2521817 0.9676302 161 156 157
1.25680658406534 0.307412194270991 0.809664193959992 0.2499222 0.4863102 0.8372821 178 182 187
1.2660037461855 0.159368723673506 0.806045525452757 0.07041115 -0.9139499 0.3996721 177 185 195
1.18999362024948 0.206064211144325 0.807187987069825 0.1045303 0.124338 0.9867185 149 158 167
1.19223006281539 0.308469310848853 0.79147141252888 -0.524739 0.3262939 0.786245 167 173 181
1.2863526155167 0.260662564738492 0.797385757914019 0.8167385 0.4830087 0.3156592 179 181 189
1.29415064529405 0.224960202343665 0.774595172886246 0.9988053 0.00307039 -0.0487701 164 163 162
1.19211142758146 0.302664987306812 0.792822917679957 -0.4179845 0.2681718 0.8679706 194 196 206
1.26508595406819 0.219234316584926 0.819525842374106 -0.4078742 -0.05476568 0.9113942 139 144 156
1.25438094217067 0.288595151650978 0.817044018489027 0.1169126 0.2212552 0.9681826 181 185 194
1.28729094517645 0.302020092919536 0.77178237054638 0.6534169 0.6812224 0.3301246 174 178 183
1.2518756729436 0.188375980795695 0.780163198334021 -0.8870354 -0.388213 -0.2499179 136 139 144
1.22468421278757 0.211950671130132 0.810721923412806 -0.08199003 0.001396199 0.9966322 222 215 222
1.20060381148133 0.33717261129205 0.783670706237068 -0.3988614 0.4713712 0.7865868 134 146 143
1.26307807857734 0.158673573099103 0.807365007375558 0.131997 -0.880124 0.4560246 161 167 180
1.27182533359621 0.293618948023422 0.795661856094395 0.8502921 0.3594201 0.3844744 139 146 154
1.27489665677848 0.172498327991356 0.81541027568062 0.4049702 -0.6167675 0.6749793 197 202 212
1.21933510153769 0.243093150432322 0.806759607616361 -0.2906971 0.06508169 0.9545991 162 164 168
1.27337863815078 0.296492053830695 0.791707826040929 0.819812 0.3345697 0.4647273 158 163 172
1.18395911795995 0.318147499473397 0.784442331179963 -0.1637197 0.2766955 0.9469084 173 177 184
1.30067605634912 0.221966105917558 0.807300292085903 0.9874719 0.1292762 -0.09048147 175 177 183
1.25614131843456 0.285817343589764 0.81700515676097 0.08413204 0.2413688 0.9667796 174 181 187
1.23979573169409 0.328795150737151 0.758827802678394 0.4636034 0.7598765 -0.4556969 177 175 175
1.29211014911743 0.202606239898276 0.777464173882506 0.9443757 0.1183283 0.3068436 144 150 156
1.20713137540987 0.25140245638442 0.80443672702554 -0.3222952 0.041349 0.9457358 214 213 217
1.23085273569386 0.176989522800686 0.802143170614559 -0.5664462 -0.7779083 0.2720247 157 165 175
1.26680138245443 0.197158362602078 0.81749527016724 -0.2989296 -0.09149612 0.9498787 166 173 181
1.26140998436045 0.157757846510034 0.784114290785029 -0.842561 -0.3301212 -0.4255713 184 186 183
1.23086572058594 0.199907327844579 0.808172727439737 -0.1678827 -0.119529 0.9785337 197 195 200
1.27487751994498 0.157921583290628 0.801114520377253 0.4573343 -0.4517151 0.7660279 183 188 199
1.20910704235981 0.32209446306369 0.794146655061588 -0.2250355 0.3433632 0.9118447 185 186 195
1.24614914537723 0.327604416443997 0.774333023128009 0.5220521 0.8397686 0.1491654 162 164 171
1.17954473031598 0.257810660586134 0.79418348955758 -0.3960642 0.1038094 0.9123359 174 179 187
1.28528898472452 0.238082936351681 0.811882866365037 0.6033073 0.5547944 0.5729079 151 157 162
1.22696649337538 0.208701981172636 0.809929064864611 0.09956987 -0.07370232 0.9922972 231 211 207
1.26486256999902 0.222649480167496 0.819790984819209 -0.3412434 0.01988093 0.9397647 166 169 177
1.17867430674529 0.264628597177444 0.792829423702966 -0.3225092 0.09354904 0.9419323 186 192 200
1.17785439179421 0.323092447436813 0.780818571705324 -0.6474428 0.4670524 0.6022291 205 205 208
1.28264178331392 0.286308622854369 0.785670815166357 0.6318276 0.237799 0.73773 142 151 153
1.2092300285837 0.192182681028309 0.804957693777027 -0.03559591 -0.04029303 0.9985536 158 167 176
1.22913980326327 0.237974788797171 0.80800405694811 0.252076 0.1295877 0.9589915 223 190 180
1.20539300972899 0.319046162545078 0.795751137216036 -0.2888904 0.3123247 0.9049838 182 183 192
1.20832300522728 0.31611633094528 0.796640325274137 -0.2010212 0.3448835 0.9168674 184 187 194
1.25798239439127 0.216532018598986 0.816506140400559 -0.3526905 -0.2094275 0.912003 185 183 187
1.2299017901608 0.311406775745076 0.804370648126191 0.04831694 0.496933 0.8664427 171 175 183
1.29899901412914 0.237135509945524 0.797182992705356 0.9075071 0.351676 0.2296842 178 178 183
1.19129813062747 0.210766043047618 0.806966360589659 0.1621972 0.1631514 0.9731771 176 181 190
1.22831252079986 0.316032013306035 0.801888055345344 0.0614586 0.4843443 0.8727161 159 166 173
1.23814229082784 0.222208736307145 0.812487461105862 -0.01979714 0.117745 0.9928465 173 178 186
1.24211956769265 0.3083774607279 0.806052926506733 -0.1821132 0.4877948 0.8537512 197 198 208
1.26604324426064 0.235171387956419 0.81891179815512 -0.4521957 0.02173565 0.8916538 175 179 187
1.28370722606252 0.223572849263661 0.818802104652173 0.4572801 0.4030692 0.7927359 163 163 172
1.28955034142377 0.19702594483682 0.820313822639072 0.2827388 -0.0904188 0.9549258 202 203 213
1.20175759308845 0.265066553732994 0.801235422343847 -0.288079 0.1939539 0.9377592 173 174 176
1.18865783138329 0.311297832322237 0.788251420584033 -0.2484723 0.3588909 0.8996993 184 186 193
1.2949796666752 0.238298516659035 0.799637935404633 0.6893553 0.451449 0.5665537 172 174 180
1.29014362527536 0.236405917671879 0.80693185911613 0.6267204 0.7317229 0.2679613 181 184 189
1.28706264402577 0.303280233934027 0.766042882627043 0.724258 0.6781628 -0.1246819 138 143 135
1.25426326976563 0.162812361478858 0.811465777682784 -0.3196758 -0.5339575 0.7827495 190 193 203
1.26176438251686 0.154706204106335 0.79793132271491 -0.03245187 -0.8996692 0.4353644 153 165 175
1.26357669630635 0.180584684395672 0.817478616067095 0.07794057 0.1216934 0.9895029 182 186 194
1.18799896308387 0.217535773891479 0.805999896813769 -0.09137964 0.2013227 0.9752533 176 182 191
1.19475105648708 0.191492747247892 0.803728201226273 -0.0261288 -0.6016188 0.7983558 181 186 198
1.28536502189669 0.289132414529763 0.781371445048428 0.7741556 0.2421388 0.584852 172 178 187
1.23901606829553 0.239758135041957 0.806522353713847 -0.09036566 0.1027655 0.9905924 181 181 192
1.2347263418857 0.297479556521856 0.813328668265513 -0.3600892 0.2923563 0.8859253 207 206 214
1.24449631283609 0.269945137020061 0.817111095282607 -0.2332166 -0.4451071 0.8645748 106 114 133
1.26059441699507 0.271745388032669 0.818469195745734 0.2143053 -0.03226268 0.9762338 187 190 200
1.24498769716476 0.220301268828846 0.811601863451533 0.02333391 -0.07132735 0.99718 191 194 206
1.20809162251729 0.19881531002186 0.805643057029662 0.04171711 -0.07905717 0.9959968 179 185 194
1.29862445516228 0.230283810751142 0.81035971476265 0.6083613 0.6264948 0.487238 189 191 195
1.19684179618976 0.302676960584173 0.795231075740401 -0.477264 0.2458799 0.84366 197 199 207
1.28138489919298 0.261874659893364 0.803434001137996 0.7148486 0.1748668 0.6770621 167 172 180
1.17619226624635 0.301003349953178 0.790079868578427 -0.2452936 0.4324429 0.8676544 159 163 172
1.23460313889938 0.258132816122482 0.807211086669695 -0.3871358 -0.3293805 0.861182 220 182 168
1.24433822325053 0.258635360827599 0.81275020013305 -0.4237016 -0.4380367 0.7928435 149 142 139
1.29929912699533 0.218455672283687 0.814725256762412 0.6612455 0.1150498 0.7412947 188 189 194
1.29921049265788 0.231245147767836 0.795701463617185 0.9028375 0.3263578 0.2799553 175 177 182
1.29314989030316 0.273272294976966 0.777321954366312 0.8060516 0.216171 0.5509546 168 171 177
1.28777094398346 0.287767551978025 0.777856570315707 0.8381976 0.2128442 0.5021176 183 185 193
1.22660250434401 0.338450489488967 0.779663087040472 0.3621975 0.8101317 0.4609769 188 190 196
1.19794237482379 0.326832418825486 0.786695781869685 -0.4565377 0.3165585 0.8314831 177 182 183
1.23795286478734 0.255396776852792 0.808063084962492 -0.2452091 -0.4619431 0.8523386 138 145 148
1.24435614630163 0.264441986583337 0.814884308889578 -0.3403298 -0.3797826 0.8601981 204 178 167
1.17262403881749 0.296830759526349 0.775836339861822 -0.6372542 0.08160112 -0.7663213 167 168 170
1.27591993407946 0.213447132887435 0.823510830401489 -0.3075053 0.08279578 0.9479374 155 161 170
1.19028893124185 0.199093526523347 0.808376779690951 0.2290965 -0.04919234 0.9721599 193 197 206
1.28228793622209 0.273055359999275 0.791950989555475 0.8320435 0.3187801 0.4539635 172 177 184
1.21409858318246 0.330146983541143 0.792617248216913 -0.1749888 0.4636156 0.8685848 191 195 202
1.19525937899127 0.336082401308049 0.762225831632242 -0.4543331 0.8850284 -0.1015195 179 180 178
1.19477859270187 0.335987165202678 0.780995690069004 -0.4670856 0.5550712 0.6882783 172 179 184
1.2051297749918 0.224837746378238 0.806023274153978 -0.1585166 0.2474655 0.9558417 201 202 212
1.29635598560749 0.2457602788234 0.793262968994087 0.8634217 0.4869363 -0.1318941 136 140 155
1.29210585612757 0.2146175869892 0.779344595050446 0.7605454 -0.03688865 0.648236 138 144 151
1.26320168230202 0.314162195881173 0.768257901692912 0.5777318 0.7600453 0.2975854 150 155 158
1.24757030122167 0.301170496409773 0.811864711807118 0.08368139 0.5069773 0.8578877 167 172 176
1.21100601646081 0.296479452633646 0.804071106009846 -0.3649743 0.1693045 0.9154943 234 193 185
1.2246993049159 0.338116592954715 0.781436999432712 0.4233908 0.74683 0.5128207 174 175 183
1.22711694075396 0.209653134603434 0.81067393612698 0.1197508 -0.06801833 0.9904712 225 221 226
1.29316883897966 0.227959455643054 0.779547955770951 0.7802415 -0.3259332 0.5338451 135 143 152
1.25202770104004 0.218063176639854 0.812815674143215 -0.429344 -0.1180938 0.8953868 121 128 137
1.23518124647143 0.277413754637708 0.816924030901212 -0.4661441 -0.118345 0.8767577 181 173 170
1.28641043537516 0.243846662383292 0.806782961555916 0.7450068 0.3515401 0.5669077 196 198 206
1.27794167351553 0.276541743303522 0.798867526539061 0.8355799 0.4038177 0.3724748 173 179 186
1.27174602532666 0.30509705122381 0.788956498066626 0.5952505 0.7393637 0.3146715 127 132 135
1.26226819017646 0.152811191637042 0.792768247093803 -0.312255 -0.9449298 -0.09800207 170 176 185
1.18188999205335 0.19212206453653 0.799240796597506 -0.4014212 -0.8233457 0.4012018 196 197 200
1.22218245828329 0.262561560843333 0.804800621145805 -0.316002 0.03801302 0.9479967 149 147 141
1.27819564704718 0.232179860299292 0.819626385438437 0.4566015 0.2661273 0.8489354 157 164 174
1.23452474520564 0.238831564039081 0.806504246880211 0.03494287 0.198939 0.9793887 165 167 172
1.2914642333704 0.254034755717714 0.793412411326891 0.9888961 0.1425593 0.04196956 121 134 139
1.29593567140279 0.215395922436903 0.771705087223285 0.4041148 -0.2817329 -0.8702401 171 171 169
1.27308570151054 0.290146020521413 0.796560431320578 0.82723 0.3666454 0.4257482 147 151 158
1.2817870715615 0.284218752422063 0.787361400578572 0.477137 0.2970144 0.8271171 187 190 198
1.24431290463706 0.239922394614254 0.807519329991729 -0.3263183 0.01032319 0.9452036 205 207 216
1.25607326644954 0.31543201453785 0.784816014645325 0.5391712 0.8170779 0.2041521 136 145 148
1.23884025625409 0.330238893582961 0.774983430795688 0.8519726 0.5230592 0.02348899 134 137 141
1.17358407625152 0.297288650943692 0.774248874464348 -0.72084 0.08548558 -0.6878095 177 177 176
1.21613008803425 0.214994160140686 0.806170110758713 -0.1614205 0.0186345 0.9867098 141 148 175
1.22841404669288 0.333339111179009 0.786607442698134 0.2284844 0.7567049 0.6125296 159 167 173
1.26947144340207 0.152383952075044 0.794145043373208 -0.305376 -0.8625233 0.4034837 137 150 165
1.18597973688202 0.311527577032076 0.787206199687799 -0.1545498 0.3437062 0.9262723 183 186 193
1.17324392750525 0.308764751573485 0.784782497767446 -0.7272609 0.4340954 0.5316509 190 193 199
1.29223536091638 0.247277830716066 0.769140083972784 0.3515721 0.01426767 -0.9360521 176 170 168
1.29340494147234 0.22662531347227 0.77100294976465 0.7647678 -0.1105259 -0.6347553 182 171 168
1.22318311165109 0.331391048941183 0.758406441277497 0.4403461 0.8822172 0.1666979 183 184 187
1.29548305119436 0.267124720767029 0.775545468966031 0.8256363 0.2963897 0.4800811 161 165 169
1.18886939501884 0.204555676158813 0.807284860793819 0.09410935 0.1375475 0.9860142 162 170 178
1.23993493484955 0.260213912001524 0.811308241956978 -0.3733188 -0.4462685 0.8133127 232 196 185
1.28740367942198 0.250681599870342 0.802142351781293 0.5874844 0.3800344 0.714448 188 189 195
1.16867424034483 0.271866391994299 0.78719357687056 -0.7045442 0.001406163 0.7096587 211 212 222
1.22233698055796 0.201787231023075 0.808195406825614 -0.272982 -0.4094318 0.8705438 204 209 219
1.27870480504278 0.279726233181269 0.790387085328587 0.9223986 0.2809584 0.2650341 188 191 198
1.24747987263696 0.321255057623662 0.799506068664945 0.3365589 0.8032193 0.4914945 155 164 169
1.26702139366736 0.204597108333403 0.818680127650438 -0.3601223 -0.04967058 0.9315819 189 193 201
1.21113368292615 0.220540527642433 0.807140728786587 -0.03199592 0.1145333 0.992904 192 197 209
1.2208911797587 0.288696549093111 0.810662914019992 -0.4946179 0.1691369 0.8524939 213 214 222
1.18859330921736 0.219264610213569 0.806008129209709 -0.01277964 0.1346095 0.9908163 176 179 191
1.25820834291828 0.156116190523231 0.798954930745629 -0.1239632 -0.9211249 0.3690014 160 169 181
1.28981081073278 0.244871802232242 0.802166465238056 0.5970322 0.2021635 0.7763263 180 182 187
1.19854718379644 0.259550240049648 0.801616797922027 -0.304839 0.08975849 0.9481648 198 199 207
1.22491305245807 0.231797180864606 0.808668675710932 -0.1113556 0.0175662 0.9936253 195 198 206
1.23497329049453 0.317606030565254 0.799774395253658 -0.01480598 0.5410536 0.8408578 169 174 181
1.2729286521769 0.189966594023786 0.819182343921714 -0.2064481 0.0144321 0.9783511 162 169 180
1.2581758935118 0.26904254119876 0.818880897706014 0.2200844 -0.003592366 0.9754742 166 174 183
1.28281343000535 0.27645576760008 0.787252170843284 0.7554877 0.236682 0.6109173 187 189 196
1.22462694003427 0.181575410766295 0.804098125489548 -0.4346465 -0.4800577 0.7619889 189 195 205
1.29021642722808 0.20285238171218 0.792192774684436 0.9469067 0.06673063 -0.3145069 128 134 137
1.27358712401791 0.288866693523319 0.798508759885964 0.8307853 0.3673716 0.4181314 166 172 181
1.28964297616158 0.215260890526839 0.819459817850809 0.4743431 0.1732134 0.8631313 173 179 187
1.23067741301457 0.245457261733933 0.807695507922637 0.1547838 0.007430267 0.9879204 197 190 186
1.28150211786631 0.222745458964359 0.820076522093237 0.3608761 0.3754656 0.8536944 143 155 163
1.19094502039367 0.193571531798366 0.806523145349663 0.01139065 -0.6317332 0.7751022 164 172 184
1.24490407900259 0.326341969076559 0.781228721141211 0.5599831 0.8236222 -0.0898069 118 121 131
1.27159612875511 0.211359139768907 0.821941461462983 -0.4145332 -0.06455201 0.9077418 173 180 188
1.23459212204029 0.241397241071927 0.806232968153416 0.0518098 0.03580503 0.9980149 203 205 215
1.25032564508652 0.326754676525756 0.762686400849106 0.5261434 0.7713296 0.3580834 164 168 171
1.17994866787288 0.305537292160356 0.787674208936307 -0.1922398 0.2124773 0.9580696 152 160 167
1.27301059466719 0.304559706195513 0.779585532779512 0.7290729 0.6839336 0.02621947 134 139 141
1.23953015333608 0.32983177380691 0.777841414811274 0.5456114 0.8378728 -0.01665341 126 135 137
1.27209024851145 0.305147571123491 0.786894043123033 0.7091112 0.6701366 0.2192677 111 119 122
1.24746611262801 0.191162473702147 0.8140864747407 -0.5060071 0.1682886 0.8459526 144 152 163
1.26257271026846 0.191913966314032 0.816527875062557 -0.1513419 -0.06764465 0.9861642 167 175 185
1.2846929035207 0.183190602775148 0.816651365353453 0.6673984 -0.5381866 0.5147179 157 170 179
1.25447354553694 0.310455440309192 0.807799614292047 0.1868642 0.5881426 0.7868736 177 180 190
1.18547077875759 0.221346613508752 0.804425616133969 -0.128454 0.1774255 0.975715 166 171 181
1.2756707832893 0.295188082788002 0.789604040248948 0.8726484 0.2233741 0.4342682 156 161 166
1.23823698236214 0.21652868075593 0.810628590961374 -0.03781714 -0.1299402 0.9908004 136 145 168
1.18368661485907 0.250868351814622 0.796751409736264 -0.2686159 0.1880499 0.9447131 174 177 185
1.25268115035006 0.156052822536551 0.80261708230651 -0.1230405 -0.9075174 0.4015882 179 186 195
1.2439791245032 0.163604035743944 0.804701213450913 -0.5201269 -0.7619751 0.3858264 152 163 174
1.27235344049822 0.182710298544785 0.81859097452776 -0.2425661 -0.107747 0.9641329 142 154 163
1.24520210210909 0.278862860462896 0.820060741104341 -0.1369594 0.1281556 0.9822516 193 197 204
1.19696167414571 0.264707878774417 0.798572434687253 -0.4630052 0.286202 0.838877 167 174 177
1.24048131606014 0.329586757254492 0.787651427750751 0.2732273 0.9401383 0.2036832 160 165 167
1.23702594622076 0.207044265786122 0.810000861249055 -0.0857227 -0.1671651 0.9821952 130 135 145
1.19545203777215 0.339562041280091 0.766809230478596 -0.3597292 0.7905209 -0.4956527 164 166 161
1.26345323960613 0.154472744901188 0.796742788693435 -0.1157073 -0.8990194 0.4223458 167 178 187
1.23328465379324 0.251078825912415 0.806691315827682 0.0497236 0.03902209 0.9980004 227 192 182
1.26694845455888 0.185757725274583 0.816651326516783 -0.1897337 0.01158183 0.9817673 165 167 179
1.18383452982778 0.332113609601622 0.777558879531248 -0.6262559 0.6884251 0.3658886 190 193 196
1.22277241762486 0.180619078000752 0.798267592325828 -0.293294 -0.8683062 -0.4000288 150 159 166
