ply
format ascii 1.0
comment File exported by Rhinoceros Version 7.0
element vertex 494
property float x
property float y
property float z
property float nx
property float ny
property float nz
property uchar red
property uchar green
property uchar blue
end_header
1.34999031192324 0.237672690184112 0.810250515186404 0.004630859 -0.2956653 0.9552803 125 134 143
1.3266756048001 0.205188804009407 0.785568498550472 -0.5482326 0.1642763 0.8200331 173 176 182
1.34712594627709 0.249388817627682 0.808934634653903 -0.2178654 0.3177364 0.92281 98 105 112
1.38259183571852 0.316894152938774 0.776629577613851 0.1364503 0.9326264 0.33405 133 140 143
1.42123727987075 0.280802479671528 0.788147630462328 0.8468522 0.4013775 0.3489088 134 145 157
1.37457821209708 0.262784377147889 0.812838132466136 0.1624625 -0.4523993 0.8768927 165 190 135
1.34135546809818 0.212314785748984 0.795941089859257 -0.2713606 -0.3539267 0.8950415 111 122 126
1.30361915433462 0.282582928020373 0.80281339796574 -0.8778077 -0.182493 0.4428881 105 111 118
1.4379631236019 0.239570500390784 0.761326651045708 0.8504222 -0.3183241 -0.4188697 114 122 130
1.39271647188291 0.273194983904484 0.807079861367322 0.375865 -0.1542411 0.9137479 136 165 136
1.30602881318108 0.30762901270742 0.796757889896043 -0.4734391 0.6005528 0.6443537 155 156 160
1.34922213051687 0.300955671920258 0.807010128611886 -0.2873408 0.4293281 0.85622 127 138 140
1.32936903636847 0.252433362282771 0.802316317956863 -0.2837681 0.4106349 0.8665187 96 102 106
1.4370802069345 0.256240892393673 0.758962664021597 0.8584729 0.01711134 -0.5125733 121 132 150
1.40864675115087 0.219201217572696 0.785699874825458 0.6928264 -0.2204335 0.6865862 193 213 173
1.38627737424045 0.296647631785077 0.798807944790335 0.3272319 0.7046199 0.629627 113 121 128
1.43421421790653 0.227384382988624 0.753810846266826 0.9639702 -0.1589314 -0.2133125 122 131 147
1.43562473208825 0.228313752851675 0.757374102377755 0.9810643 -0.08982527 -0.1715935 128 136 151
1.42792732662288 0.187710560773365 0.763829638077115 0.5861627 -0.2931625 0.755294 120 131 147
1.37464355999999 0.261629042712036 0.811757504103064 0.1587977 -0.4604246 0.8733799 208 222 189
1.38226046719684 0.175982130363977 0.777696233594488 0.0004666268 -0.6898412 0.7239606 154 160 169
1.42846057509315 0.200449822105845 0.766302869664953 0.5125734 -0.1425715 0.8467242 141 148 162
1.38115130484492 0.277260316991733 0.812150270009552 0.5061252 -0.1371503 0.8514852 205 219 188
1.30902502616915 0.248351409619617 0.803681383874867 -0.3420605 -0.4536076 0.8229429 123 126 135
1.42718615707453 0.173919128565945 0.752515181647668 0.5582392 -0.7764202 -0.2924734 168 169 180
1.41222494777306 0.206687145633061 0.780059149343007 0.6063322 -0.232596 0.7604343 138 151 160
1.30369327441389 0.237451499955959 0.79709853332194 -0.5583941 -0.7344502 0.3857187 183 186 200
1.36973374785549 0.224310031779825 0.800479172751866 0.3570519 -0.2968498 0.8856603 195 214 178
1.38137923212049 0.26916412894557 0.812006614287698 0.5263879 -0.0006065163 0.8502443 189 206 175
1.41452502278896 0.16228293265422 0.758473959288155 0.4456533 -0.8706111 0.2083974 156 167 180
1.30759548391025 0.281681689927446 0.80947881728761 -0.35536 0.1605876 0.9208316 187 190 195
1.33481544729774 0.207517425087868 0.790689339639389 -0.3699712 -0.358873 0.8569315 189 189 197
1.40855757686895 0.180574922932321 0.777301767615848 0.4458253 -0.2348555 0.8637608 200 198 211
1.32063227655792 0.228553453211384 0.791027052867983 -0.408082 -0.346722 0.844543 110 115 123
1.30081327126341 0.25102095792612 0.795589162606424 -0.9657409 0.1468083 0.21399 110 121 131
1.3187887645306 0.214603030850497 0.785738628559286 -0.305202 -0.4791506 0.822962 119 123 135
1.42389702015056 0.224327868469642 0.776391074428811 0.4847188 -0.2836261 0.827408 111 122 134
1.35965805627016 0.190437519397601 0.788733729590484 0.1384582 -0.6563382 0.7416532 115 121 129
1.31600925055235 0.198941168176823 0.782235784449792 -0.5592754 -0.1923628 0.8063545 118 123 135
1.39646257920062 0.292041716772245 0.797468384784529 0.4179647 0.62535 0.6589711 113 130 124
1.42014574762899 0.301939522283843 0.774195714254799 0.4487595 0.7004766 0.5549302 214 213 223
1.31266237581116 0.285555128881028 0.80703138507453 0.01604065 0.3194872 0.9474548 126 135 148
1.38738962863868 0.289069690606979 0.807378972006422 0.4077457 0.6646377 0.6260992 201 221 171
1.38537542681654 0.238383091444353 0.807637548759058 0.5153626 -0.1107872 0.8497809 118 141 121
1.43599137160821 0.18860743950372 0.757974028008838 0.8905517 -0.2084728 0.4042976 159 170 187
1.32164282563369 0.237904544881547 0.801513549717709 -0.5953254 -0.5856497 0.5500929 113 119 127
1.33466688452604 0.276920906577292 0.807958624768147 -0.7118543 -0.2244017 0.665513 91 100 104
1.41742660751454 0.25585094695249 0.78886260602744 0.592405 -0.1470744 0.7921019 200 199 210
1.4206002269622 0.290902373692026 0.75329018642807 0.9443682 0.190055 -0.2684171 145 153 159
1.38446933558079 0.22811128547334 0.805417427818967 0.2044635 -0.4092738 0.8892074 159 166 172
1.32665908618923 0.203538391436901 0.786794918249734 -0.5435516 0.1800632 0.8198348 145 148 159
1.42445758388097 0.176629927246692 0.762212659273545 0.5951064 -0.4187038 0.6859559 159 168 181
1.36303050739229 0.267012054118636 0.816354984430548 0.07310299 -0.4902997 0.8684827 122 130 134
1.35078303215406 0.27239186119372 0.81913078789414 -0.1282134 -0.09351274 0.987328 172 174 185
1.35234561778938 0.195050211015713 0.792252485139001 -0.03588472 -0.6367912 0.770201 116 127 135
1.41098195866262 0.311420940878172 0.752831589570855 0.4573238 0.8762088 0.1520296 148 153 164
1.41522887791096 0.167058211612128 0.767944769158216 0.5740893 -0.5222962 0.6305778 193 198 213
1.3459880092856 0.205748780109034 0.795063184292517 -0.2056322 -0.2208403 0.9533861 187 187 193
1.42602592360811 0.296649434067705 0.765939627055856 0.7572803 0.5001738 -0.4199436 202 204 211
1.43611969647524 0.242418378924383 0.75581179257813 0.9892214 -0.1071124 -0.09984014 143 149 166
1.4137762768223 0.252096180905204 0.790703000556092 0.5756157 -0.2052236 0.791549 196 199 206
1.37284784017118 0.230730448215107 0.802762440940198 0.1595663 -0.3992232 0.9028619 216 228 163
1.37423138885367 0.29689418323877 0.808837318762238 0.3411339 0.625984 0.7012643 122 133 138
1.35507288135562 0.253866582001157 0.809032856054406 -0.3116674 0.07839072 0.9469521 99 105 112
1.43456657089436 0.2612988008127 0.744182469671128 0.970857 0.196071 -0.137815 171 177 185
1.33518375982387 0.319909314657956 0.787296294327914 0.141281 0.982579 0.1207401 157 164 167
1.41328650015076 0.193611268531666 0.774903315203166 0.5987455 -0.1148307 0.7926649 180 184 193
1.33990833774831 0.232780587537738 0.809071499555482 0.1372273 -0.5193341 0.8434814 108 122 130
1.3317553804235 0.25523208807305 0.80309527887848 -0.3278924 0.1774458 0.9279006 103 111 115
1.3570480228729 0.199541752330704 0.794550679493722 0.1097497 -0.5137461 0.8508936 139 150 160
1.42036429852765 0.213911114098093 0.774108922548887 0.6306803 -0.2258149 0.7424622 148 158 171
1.42355466126528 0.252373051988078 0.783655574763433 0.681142 -0.2203392 0.6982093 126 135 147
1.3625106275716 0.277151517330424 0.816920238734986 -0.07203016 0.3486474 0.9344819 130 139 145
1.40839429579373 0.198459429957432 0.780908203851129 0.6570024 -0.1893266 0.7297283 132 133 153
1.38719342148189 0.203910264209872 0.792355452892961 0.166768 -0.4620777 0.8710181 200 216 178
1.33487738510666 0.280290404601834 0.80825508941144 -0.6532282 -0.2533971 0.7135003 104 114 123
1.33298248771363 0.235688308532944 0.809298773441738 -0.3899987 -0.5147281 0.7635155 127 136 142
1.42496960170107 0.27127573852224 0.791225002034267 0.761491 0.02851252 0.6475481 149 158 167
1.43540075575432 0.23840982311711 0.736413025579953 0.9715582 0.07388478 0.2249796 139 145 166
1.33266225958923 0.248521021375538 0.805924773107675 -0.1204453 0.4463141 0.8867337 129 137 146
1.33527007240074 0.271864322127958 0.806173102313112 -0.7959028 -0.119638 0.5934858 94 107 112
1.33579605732685 0.2719761668917 0.80725463144164 -0.7925119 -0.128036 0.5962647 87 96 99
1.33705402885194 0.272022169332086 0.809567576702421 -0.7801379 -0.1276479 0.6124466 85 92 97
1.33723886398201 0.272491355907208 0.810272382189331 -0.7609655 -0.1444587 0.6325055 95 99 109
1.33924954237749 0.271373944358788 0.812078234314581 -0.6587528 -0.164378 0.734183 112 119 129
1.34084536537138 0.189184811723894 0.780143789586044 -0.3896968 -0.7899728 0.4733703 116 120 124
1.43510258340187 0.234638225503842 0.758574393817538 0.9797127 -0.04732176 -0.19474 108 120 134
1.34675997657056 0.282591958996109 0.813702432063216 -0.1042562 0.5113208 0.8530427 126 132 139
1.39112378157808 0.193897391129972 0.786194950242641 0.3385309 -0.4354829 0.8341171 116 128 135
1.34973126217354 0.18257177501664 0.797083907056502 -0.4992001 -0.6863843 -0.5288438 123 132 143
1.42910159856829 0.175326436052982 0.755627185238547 0.5959924 -0.7921415 0.1315485 133 144 156
1.42953644948942 0.274819523515744 0.749572007885821 0.7660989 0.5750985 -0.2869742 162 168 181
1.38771427993633 0.300761091893679 0.79336428697885 0.310583 0.5954187 0.7409553 137 143 148
1.41982157175051 0.17704184638016 0.766781322747425 0.6264395 -0.3464382 0.6982508 153 156 176
1.40569330591257 0.291151905768679 0.794199417984022 0.3709329 0.656959 0.656364 133 144 134
1.43299254969013 0.187052761018591 0.760014491924762 0.6374754 -0.2527664 0.7278285 158 169 182
1.43297835587627 0.260734370273971 0.776874661531854 0.636609 -0.2519619 0.728865 140 148 158
1.36577613653628 0.251530728653303 0.808944427428062 0.1845171 -0.200824 0.9620932 96 106 103
1.39307906049098 0.188873584057913 0.783126243823236 0.2104594 -0.2439988 0.9466633 102 113 120
1.39531227815015 0.173808792992115 0.776014317109987 -0.1274482 -0.5163854 0.8468194 193 195 206
1.41993201849842 0.168995961760328 0.756978362374132 0.8086408 -0.5860623 0.05129173 124 134 146
1.41273721076783 0.283638264886489 0.794973428685825 0.2962137 0.4337868 0.8509327 137 148 159
1.43434594766248 0.251876346536362 0.773554759289701 0.5891931 -0.2728307 0.7605359 139 148 164
1.41422983584288 0.270892298814054 0.800304058950174 0.5349303 -0.228532 0.8134019 151 163 174
1.37492405594658 0.25494235983639 0.809012589964357 0.005525153 -0.2054884 0.9786439 202 218 177
1.43321236705607 0.281282926967029 0.77670359181154 0.8475451 0.3331146 0.4131608 163 175 183
1.34939686088372 0.272866858206456 0.818960852246648 -0.195453 -0.06508662 0.9785509 167 171 180
1.35412005710331 0.255787618818354 0.809122530059285 -0.3200843 -0.1613346 0.9335509 102 108 115
1.36176158595008 0.177661929206598 0.768080428323318 -0.3759573 -0.8430738 -0.3845551 106 112 107
1.33508322930235 0.202107646441714 0.790747875401363 -0.3554864 -0.08090189 0.9311736 134 137 146
1.34530228380015 0.296947347257983 0.806933862315658 -0.3072356 0.3830774 0.8711245 105 112 122
1.4292464862039 0.18705291558945 0.762471203718545 0.5757313 -0.2792974 0.7684572 130 138 156
1.39326181051462 0.268309088043976 0.805506141573964 0.4240907 -0.1589883 0.8915547 202 219 182
1.39703863899748 0.204299027789696 0.791888543225225 0.1620295 -0.4678179 0.8688457 137 151 155
1.32067717370967 0.256893856242532 0.802849190999019 0.3374726 -0.08623187 0.9373774 114 120 130
1.43580421127157 0.240365135914498 0.768158753040488 0.6001542 -0.1852318 0.7781414 169 172 188
1.42028880686801 0.269446363513359 0.795010871818232 0.5963589 -0.4216581 0.6830524 181 190 199
1.36977891887071 0.180083909306835 0.779165043816306 -0.06045175 -0.495189 0.8666795 117 123 133
1.38493278102495 0.176172791947093 0.777858118866872 -0.03365525 -0.6962192 0.7170398 149 157 166
1.38235804140125 0.238875756477288 0.810451793325172 0.239991 -0.2461843 0.9390407 165 169 179
1.43236750453894 0.181046714144606 0.749835603159813 0.7681519 -0.5095353 -0.3877066 156 163 171
1.36809886084338 0.196862205276252 0.792759696354322 -0.03391924 -0.5777691 0.8154951 108 119 131
1.39910087606232 0.226322224738451 0.797417012905449 0.557448 -0.1172597 0.8218893 175 184 192
1.42974039431379 0.250611345199266 0.77647689098175 0.6398597 -0.303986 0.705813 152 164 178
1.35110298182543 0.253848080410568 0.808162372650895 -0.2711157 0.04430906 0.9615265 96 103 106
1.38168578169312 0.175846240579 0.775823902808506 0.07983237 -0.7681465 0.6352779 168 173 184
1.41261089419344 0.30783407457983 0.76089965310711 0.2878271 0.924386 0.2503316 128 136 140
1.42222651183406 0.170693004860813 0.750639458357712 0.6901596 -0.7041531 -0.1668779 155 159 176
1.32650944730437 0.210058419773855 0.785469120497174 -0.5123365 -0.1924589 0.8369414 132 137 142
1.30351884538979 0.278936649346389 0.800904127680942 -0.9092397 -0.1240224 0.3973683 103 111 114
1.37763315677575 0.206518158587762 0.795537534561622 0.08201237 -0.3510999 0.9327394 210 229 153
1.32337461143039 0.217481718948206 0.789084410601415 -0.3198692 -0.361696 0.8757053 145 149 159
1.35746072978297 0.296547225364854 0.810809774460189 -0.1167384 0.4359966 0.8923447 155 161 166
1.42964654544578 0.21693645444014 0.770256782744351 0.5411392 -0.2846869 0.7912785 110 125 138
1.4342729543106 0.250882483195803 0.752842656129016 0.9548874 0.1251981 -0.2692869 150 156 171
1.38211253977626 0.258384950030718 0.810374039870328 0.3475852 -0.1555308 0.9246593 119 130 135
1.43297199612911 0.284178435606093 0.775309715286766 0.8608955 0.3480006 0.3711529 179 186 195
1.36282828275541 0.309997100990473 0.797255697217437 0.2285974 0.7742026 0.5902148 149 158 166
1.37265922389542 0.304421903613612 0.800425055335012 0.4575723 0.7952132 0.3978234 110 117 129
1.43338601229718 0.268307025060929 0.755822133183867 0.9406078 0.2424061 -0.2376892 170 178 188
1.39856121958338 0.312716798745286 0.766119430097425 0.4992727 0.8601037 -0.1046345 127 133 145
1.35949576325199 0.209376248435483 0.797659410252951 0.1911519 -0.2872169 0.9385986 170 173 182
1.38417116300559 0.188597951859578 0.787125655793165 0.2368752 -0.3515892 0.9056904 152 162 169
1.38348834049471 0.30189727178745 0.795054355216992 0.326241 0.6458364 0.6902624 124 130 136
1.3970095772752 0.251972726445686 0.804020643420347 0.3776515 -0.2656212 0.8870314 150 158 158
1.36746636369409 0.303356828841078 0.80430285040483 0.1834759 0.7286092 0.6598979 138 145 158
1.37170834044623 0.229037804537917 0.801873705649623 0.2392713 -0.4008301 0.8843554 218 231 171
1.39613376670559 0.314471773871564 0.754354737074184 0.2569785 0.8375602 0.4821358 118 125 132
1.31762367341105 0.233794024427117 0.791831845901401 -0.4151366 -0.5394895 0.7325386 118 124 138
1.36656098842302 0.177452136867559 0.765117024721473 -0.4953962 -0.8032183 -0.3307917 102 110 106
1.353986813642 0.182429623254176 0.780430727805209 -0.1832212 -0.7470381 0.6390336 144 150 154
1.41195847897143 0.269352183976977 0.8011386257622 0.5378631 -0.3423356 0.7703957 174 186 195
1.39191776133493 0.233089438597409 0.803431864025237 0.4912555 -0.2381037 0.8378392 205 226 167
1.42061664814938 0.288072538864668 0.750289372158766 0.9490598 0.2822161 -0.140141 144 152 170
1.35794868330085 0.253534801146434 0.810946548282457 -0.2739195 0.04620609 0.9606419 111 117 127
1.33718308732189 0.308171289002687 0.801403181684175 0.04879955 0.5326535 0.8449254 142 149 163
1.42789766572834 0.260573259986594 0.781480731342429 0.6319141 -0.2409825 0.736622 125 136 145
1.41906670810823 0.292347566286794 0.782786951891025 0.4438247 0.5933414 0.6715397 120 129 139
1.37870276833193 0.310731524591225 0.787638925076982 0.4487787 0.723295 0.5248258 140 144 153
1.43506381596856 0.23144148570245 0.757653414786329 0.9945383 -0.01946521 -0.1025411 118 128 145
1.40242083340468 0.16318889465398 0.767097794933324 0.1487928 -0.9279511 0.3417127 139 152 162
1.35218117014381 0.188229645465368 0.786388268943719 0.09074452 -0.5845925 0.8062363 154 158 164
1.43208014427229 0.222173075843141 0.747829955125096 0.8644639 -0.3902979 -0.3168118 97 107 116
1.40100763525947 0.158711317625116 0.758416791266599 -0.0806647 -0.9680814 0.2373005 179 181 188
1.43901967358762 0.253251583770111 0.760436629608188 0.7979393 0.04723421 -0.6008841 127 138 154
1.34108667309049 0.284269133433861 0.812059402410205 -0.2452703 0.3234884 0.9138916 124 128 143
1.43522227977312 0.251580835512483 0.755661632593841 0.9163821 0.07938123 -0.392355 134 146 160
1.3838833959664 0.306669246718525 0.787984397545003 0.177155 0.8372133 0.5173877 112 118 119
1.40027394122901 0.273306537694176 0.80410336996646 0.2088412 -0.2223368 0.95234 131 138 143
1.30475584226297 0.298382001548586 0.801044151472039 -0.3211728 0.3768048 0.8688303 178 182 191
1.30993594950551 0.228287673031577 0.781591936200355 -0.8587939 -0.3696473 0.3547307 91 97 101
1.32999475247154 0.191216333583006 0.781667698052325 -0.1007709 -0.8134357 0.572859 112 117 120
1.36256510001138 0.305528751866099 0.803888764298337 0.1119098 0.6826835 0.7220938 123 133 140
1.42630106813924 0.237573700783736 0.77649426198467 0.6572606 -0.03017093 0.7530593 124 133 143
1.37741229208469 0.198148733412036 0.791547098135269 0.2791537 -0.3653327 0.8880344 144 150 161
1.41430292777545 0.307436180786037 0.747508902580451 0.7485338 0.5741074 -0.3318099 161 170 178
1.4319371153603 0.178176048728069 0.75280556750196 0.7634568 -0.6089302 -0.2152621 155 158 171
1.3737499632313 0.228219225232829 0.800951598243351 0.1028135 -0.4796093 0.8714381 119 162 63
1.43650163143838 0.202630074128164 0.759420994554407 0.9806338 0.176891 0.08406561 115 126 143
1.35615846356325 0.263867787643446 0.814530322153361 -0.1523773 -0.5090744 0.8471271 105 111 121
1.3486478833866 0.264574745909407 0.812668161072458 -0.2560211 -0.5710406 0.7799781 104 113 122
1.41504487683247 0.275342623017017 0.798508700112728 0.3885546 0.3246655 0.8623327 172 175 187
1.33334080784896 0.278119412479859 0.80671760449693 -0.5378379 -0.2829596 0.7941437 107 118 126
1.41624204932671 0.163561081056566 0.757667857299355 0.6822035 -0.7265013 0.08242749 153 162 175
1.36560665162354 0.320626625702056 0.774559003155701 0.2227492 0.9718854 -0.07629731 114 121 125
1.34319795475529 0.203530280151223 0.794583123297643 -0.2696067 -0.08916613 0.9588335 196 196 201
1.37212244908549 0.256749297816894 0.810000336541321 0.0485016 -0.3078163 0.9502087 159 184 140
1.34328736765777 0.197590407723231 0.793122696485682 -0.1354795 -0.4410104 0.8872178 110 124 139
1.37621007960842 0.27176121196968 0.815102515127539 0.5529249 -0.08316971 0.8290699 124 138 146
1.39257925038886 0.30549180785573 0.786959249223668 0.4167269 0.7794169 0.4678118 134 142 147
1.33960464702871 0.270138090427385 0.812008957404368 -0.5766216 -0.2664881 0.7723287 125 130 145
1.3761296161853 0.175132968399638 0.777861578612278 0.09986454 -0.6121444 0.7844148 132 142 156
1.43903375650088 0.261320383587851 0.763119561243234 0.8719789 0.1419345 -0.4685161 153 162 179
1.43719120573615 0.213943402948914 0.763172198164382 0.9471673 -0.308998 0.085991 131 147 157
1.41412502362472 0.164411313200388 0.764656750709991 0.3573307 -0.8211191 0.4450598 205 209 219
1.44087831995055 0.261071000512382 0.765808393052171 0.9706241 0.1643264 -0.1757429 145 151 165
1.4156308056586 0.162501147211102 0.755679535183981 0.532936 -0.7987058 -0.2793714 157 166 178
1.32604794291135 0.190695784896549 0.780888599490329 -0.1669947 -0.779693 0.6034828 118 134 132
1.39552251505861 0.166218031989217 0.752164918678602 -0.4487002 -0.7487109 -0.4879551 140 147 153
1.30717814019039 0.303611047556844 0.80041300195545 -0.3498983 0.4239958 0.8353435 175 181 187
1.43109546725975 0.251529342941964 0.775541319377762 0.6044888 -0.3179138 0.7304274 171 177 190
1.41447934017832 0.264024816949315 0.795278265893856 0.5362303 -0.448396 0.715121 126 137 152
1.3318639883764 0.188901032649006 0.778773531418065 0.2108947 -0.6654302 0.7160489 95 104 112
1.33116544545877 0.312820767897354 0.799528100066954 0.0575156 0.544972 0.8364792 143 146 159
1.42891818903167 0.269256123337109 0.739875404766448 0.7904619 0.5010423 -0.3523161 189 189 198
1.40221495968761 0.311107728134504 0.760371308217215 0.3701525 0.9040897 0.2135624 118 129 131
1.40424503966968 0.278601114576748 0.803387427488522 0.4225321 0.3244342 0.8462914 156 168 170
1.41311603238369 0.308527219878617 0.759534068077415 0.3789339 0.8573489 0.3483705 143 151 160
1.35697705616244 0.17682049700695 0.795878467584068 -0.7756336 -0.619006 -0.1233857 95 105 108
1.41091521180681 0.168397926443877 0.746808730412309 0.4741753 -0.6448622 -0.5994252 134 146 156
1.42161177449851 0.279031537364351 0.790132651146136 0.8380051 0.4010236 0.3700371 146 154 168
1.41740493584169 0.269717685288281 0.797361776130923 0.5325886 -0.4032848 0.7441174 150 160 175
1.39783606980024 0.183897021227132 0.781375933473118 0.1378171 -0.2815145 0.9496084 133 145 153
1.37429455183611 0.191938956092469 0.789694111427902 0.02685325 -0.5660379 0.8239416 116 129 133
1.41771280870817 0.296341157207431 0.74467694683989 0.9413281 0.2767908 -0.1931017 156 160 172
1.36975810896448 0.307214165895622 0.794520108293582 0.3014436 0.7375232 0.6043108 109 118 123
1.38932842940323 0.192039001707355 0.786334119486864 0.373888 -0.4164936 0.8286983 147 155 169
1.4226506266591 0.236157562191514 0.780477284988076 0.6138934 -0.04189564 0.7882764 144 151 160
1.42019923326133 0.212080861524725 0.774020004358791 0.6652294 -0.1854665 0.723237 141 150 165
1.39323875064038 0.162814203060683 0.759676564135708 -0.4186093 -0.9076048 0.03193544 144 147 158
1.42356060133413 0.19282650760176 0.768426254459506 0.5517428 -0.1404861 0.8220971 134 142 158
1.3450173303717 0.184498767481885 0.779014382540012 -0.3989997 -0.8442007 0.3579449 107 112 116
1.35311566441898 0.310470151079459 0.799188804724173 0.03677264 0.7158642 0.6972705 126 134 139
1.36380056596345 0.291302411029758 0.8140126942092 -0.1213053 0.2167806 0.9686543 118 124 133
1.3949687475991 0.165838623241106 0.753013846187358 -0.4487002 -0.7487109 -0.4879551 138 146 151
1.42098624930997 0.243534781206468 0.782297850725727 0.6574401 -0.2026629 0.7257411 160 167 180
1.40640569150758 0.228389684484312 0.789254970130854 0.6160024 -0.004206731 0.787733 112 121 130
1.33859253768143 0.319497108652547 0.786381668683193 0.1329725 0.9863754 0.09685986 122 131 137
1.3913680341932 0.191844435453491 0.785338650105458 0.3373523 -0.4521369 0.8256911 109 119 127
1.34003338727187 0.305041286485222 0.803496713021715 0.04640042 0.4350532 0.8992084 116 124 134
1.31917694620637 0.303084689334008 0.802768998854019 -0.04573467 0.3251827 0.9445446 133 137 150
1.33856453373719 0.211631480880798 0.795506534276454 -0.2689088 -0.4242763 0.8646836 136 139 152
1.33643292498734 0.270357664593938 0.807308082476167 -0.7874075 -0.1067452 0.6071203 87 95 98
1.3721760697869 0.240318479430458 0.805887810005826 -0.297868 -0.4743993 0.828384 114 125 107
1.32274165924927 0.202728262013595 0.78534902748214 -0.388356 0.217077 0.8955764 168 172 181
1.43389275219501 0.223546090015133 0.754467345945386 0.9294575 -0.1245631 -0.3472648 133 141 152
1.34463151317649 0.238269256763309 0.80988383775183 -0.0487251 -0.3111761 0.9491023 122 128 134
1.4332696649494 0.206785933065206 0.756162456708126 0.7682833 0.3946226 -0.5039978 112 124 136
1.42673171750008 0.25073368208637 0.77973498183598 0.6791902 -0.2630762 0.6851946 125 132 144
1.42114804153773 0.289226743743982 0.754268410624605 0.9310544 0.2245283 -0.2876193 161 168 172
1.33812562085928 0.258088945257821 0.805637058584024 -0.3246849 -0.3925385 0.8605192 99 107 115
1.36939558265759 0.252772342550615 0.809078510213621 0.07691093 -0.2270246 0.9708473 130 135 146
1.42575524045497 0.173505364920917 0.752182577285301 0.577072 -0.7689164 -0.2752372 141 151 161
1.39641961087952 0.314918727443205 0.767789662102404 0.5248638 0.8444287 0.1070418 128 135 149
1.40619339163401 0.221030513137792 0.789832504798835 0.7856345 -0.1384623 0.6029983 95 110 113
1.42946309596852 0.217390609867125 0.748983663698223 0.8864007 -0.3804763 -0.2636886 117 125 139
1.40412002600552 0.170937768357503 0.773991284172748 0.3185109 -0.4695405 0.8234577 130 139 159
1.38556900880316 0.317236783244471 0.767881276943896 0.198724 0.9777571 0.06708121 128 138 141
1.33027486429254 0.307933589382845 0.801753368469599 -0.0645944 0.4116997 0.9090275 129 139 148
1.41052628846623 0.170042606834931 0.74381221498089 0.4151851 -0.6705962 -0.6147537 117 124 135
1.42851217903615 0.26901759634187 0.786259697358986 0.6407055 -0.3555843 0.6804824 135 146 164
1.36099776291971 0.182761285953955 0.781201924256389 0.03512249 -0.4947177 0.8683437 137 143 151
1.43206778273057 0.267130947496439 0.745933568078081 0.8768086 0.4278232 -0.2194859 180 183 198
1.41422377710215 0.194905208551982 0.774319888922045 0.572285 -0.1580452 0.8046811 169 174 183
1.43153637520898 0.232628182178463 0.771768572310999 0.6859561 0.03177249 0.726949 171 178 195
1.42873580490453 0.210273382334755 0.751359532758469 0.9709554 -0.03498754 -0.2366886 133 143 156
1.38615198938034 0.289302519548839 0.807613660599289 0.3820028 0.6701223 0.6364039 205 225 179
1.37572327992282 0.301830996652657 0.80098156300005 0.5761765 0.7199977 0.3868127 123 130 140
1.43300051071887 0.25910751451943 0.776950244908121 0.6421803 -0.2392145 0.7282725 140 147 157
1.3952944566519 0.164607288522213 0.766093537622676 -0.2753284 -0.7885346 0.5499159 149 157 168
1.33027391996268 0.209849300511056 0.789906997689776 -0.653468 -0.2732792 0.7059022 164 167 172
1.41093321855878 0.295430911671889 0.785463834855155 0.4927458 0.6782367 0.5451573 138 145 153
1.40231245617949 0.251316114424326 0.800104295800836 0.6286253 -0.2305831 0.7427393 184 197 185
1.36787336517018 0.209839096603598 0.796802897211441 0.117107 -0.4548419 0.882839 156 170 167
1.37319451556515 0.222914254716783 0.798354481630388 0.2977073 -0.2417662 0.9235365 127 162 110
1.42044736808211 0.183220033083068 0.768699272470426 0.6229851 -0.2280522 0.7482526 136 143 162
1.41486632373527 0.307437627508228 0.748950706201477 0.7672464 0.5827976 -0.2677313 164 170 182
1.40632081130899 0.210741352547599 0.786126858877655 0.7925623 -0.188265 0.5800012 133 162 126
1.33466914152368 0.186325199054853 0.775255086060776 0.1833634 -0.7624472 0.6205257 113 123 127
1.32042550574002 0.192912608877092 0.780784114143358 -0.3276807 -0.7456027 0.5802603 124 132 139
1.43654451092513 0.247935225785466 0.77035384748572 0.5555831 -0.233526 0.7979931 143 150 163
1.44065501014715 0.243658241221982 0.765426025788033 0.9214002 -0.3048393 0.2410281 164 170 183
1.41024865862445 0.222865084013974 0.785060060324648 0.6106033 -0.2780429 0.7415227 105 113 123
1.41975000190986 0.302034279698418 0.759956804172723 0.8118751 0.5386941 -0.2250944 160 169 174
1.43228009283909 0.178519364956885 0.752339788942362 0.7559224 -0.5928391 -0.2777102 160 162 175
1.30724256699888 0.279449650483578 0.807627727321994 -0.6763437 0.05111535 0.7348105 127 140 154
1.32761342206479 0.286096696621604 0.806597403908133 -0.09288425 0.03227867 0.9951536 152 158 167
1.30281440846313 0.295625879439689 0.803424039698224 -0.3488698 0.3441516 0.8716935 181 182 195
1.40831748928029 0.279428870862616 0.800734210161788 0.5246139 0.5128254 0.6795517 140 147 161
1.32885129366978 0.243260804208816 0.808392709228157 -0.2443476 0.3877247 0.888799 128 135 148
1.31749600542177 0.304428877129576 0.801518192669782 -0.05640128 0.315161 0.9473607 150 158 166
1.43323798817201 0.24735536953829 0.771769614779372 0.5376834 -0.278044 0.7959825 147 156 169
1.43013943053786 0.205700268385503 0.766624545820185 0.4330346 -0.2548963 0.8645859 118 131 143
1.35302871002375 0.260295567327231 0.811527318887795 -0.2221563 -0.5042551 0.8344899 93 104 111
1.37344955162819 0.244282849165384 0.810150702477823 -0.3091669 -0.1946975 0.9308645 112 118 124
1.34219206596851 0.28252447144339 0.814256048532295 -0.274773 0.3332471 0.9019125 131 134 149
1.41496300804848 0.285792299458747 0.793219691730887 0.4317544 0.5174408 0.7388119 171 174 186
1.34779822113621 0.296673320458008 0.808034145717798 -0.3077479 0.342396 0.8877254 119 124 132
1.40839840204623 0.212410440265387 0.783331571103398 0.6262597 -0.2174879 0.748664 191 212 178
1.35651567876975 0.322332370547424 0.779243836117519 0.1275806 0.9698365 0.2077027 121 129 131
1.43422182213565 0.24061950994293 0.748279297819899 0.9565137 0.02601995 -0.2905247 113 122 137
1.40235929875813 0.253289191229155 0.800411610313579 0.6321115 -0.2120776 0.7452908 178 183 196
1.37301727232341 0.217184077453811 0.798026417754928 0.3372116 -0.09698193 0.9364203 132 153 117
1.3646562591588 0.282375385427668 0.815614401017869 -0.06708291 0.2891851 0.9549198 109 114 121
1.30388478524687 0.275235664472691 0.798883103280349 -0.8453819 -0.1875116 0.5001689 131 136 151
1.41196072483807 0.272677431527919 0.802215848292848 0.5690936 0.04580726 0.8209958 189 191 200
1.39799644945941 0.244580835280767 0.798957643461002 0.5805296 -0.3751592 0.7226624 121 128 142
1.34691534817065 0.232959262406938 0.806345352752219 -0.0662184 -0.6331822 0.771165 112 118 127
1.43233157726184 0.223760097992002 0.746048163199936 0.8697047 -0.3810593 -0.3136999 105 116 122
1.36428432653445 0.180347795225813 0.780468213142498 0.0211801 -0.4806911 0.8766342 129 139 146
1.43728541415203 0.257233995664778 0.759241416437209 0.8700634 0.02077769 -0.4925016 135 144 163
1.34525129752324 0.29928766973075 0.806641846101929 -0.3243588 0.396489 0.8588294 97 102 104
1.40191592556506 0.277897365800515 0.804240857790345 0.328004 0.1204261 0.936969 169 179 185
1.42327371002477 0.300056978431609 0.774230487415398 0.5252766 0.6731426 0.5205415 173 177 191
1.32279406223161 0.305629989829706 0.801424073940168 -0.0755852 0.2530343 0.9645001 134 140 151
1.35775458152875 0.281645919733497 0.814975415973508 -0.09215622 0.346209 0.9336202 133 137 146
1.34007003115653 0.186766204328539 0.778414095480664 -0.3823187 -0.7967845 0.4679392 125 130 138
1.43803415936965 0.226709602849879 0.765363405746113 0.9869301 -0.01304065 0.1606205 151 149 171
1.42075119931588 0.177744315950578 0.765707177557604 0.5960488 -0.3187686 0.7369615 138 149 166
1.42910258446988 0.17724604483093 0.751131910213212 0.5690889 -0.7146296 -0.4067461 145 147 164
1.42938688119324 0.199223098973211 0.747318277468364 0.6657348 0.4106135 -0.6230519 127 134 148
1.35449645319943 0.181286063192882 0.76765698449883 -0.2146097 -0.8890306 -0.4044345 90 97 91
1.43022469967226 0.275749901088276 0.754769609264432 0.7615265 0.5959794 -0.2547272 169 180 187
1.39021194746533 0.317123970622802 0.770303745182069 0.2508585 0.9440621 0.2140487 144 151 159
1.40915740409262 0.309425591325144 0.760089871979889 0.2274756 0.8786673 0.4197601 123 133 141
1.34897778862498 0.285628832900335 0.812555785300372 -0.1150766 0.377076 0.9190055 124 130 140
1.35790406755246 0.30848857852518 0.801034196654036 0.07388895 0.7640403 0.6409234 119 134 136
1.34333251195001 0.317596713878673 0.792799813643923 0.1128186 0.8152674 0.5679884 119 131 133
1.31128932502354 0.209446413836356 0.78058742489956 -0.4211387 -0.1291494 0.8977542 175 175 182
1.34496424599876 0.233296517766291 0.806329005857187 0.1504577 -0.6213384 0.768961 112 120 129
1.29989912751847 0.247150221311295 0.789263195584746 -0.9855914 -0.1689198 0.0087017 122 127 139
1.3568687570559 0.253733383024592 0.810988957107123 -0.2801276 0.01871945 0.9597802 107 114 118
1.35453493954267 0.210156208768285 0.799176903279707 -0.05372998 -0.2882133 0.9560576 152 159 168
1.40720113147426 0.311597125216763 0.756658838697961 0.2211656 0.8322138 0.5084347 134 141 145
1.34527270002619 0.220102736505507 0.799652216330833 -0.1026067 -0.2963039 0.9495662 133 141 150
1.42659421666184 0.179245646619923 0.762064141744361 0.5902379 -0.3444382 0.7300557 175 183 195
1.39947391141491 0.313097802633532 0.756033912881765 0.2180668 0.9036616 0.3685682 140 148 151
1.42213722233859 0.23933910147815 0.780666685233826 0.6375449 -0.1144678 0.761862 120 131 141
1.38473308490187 0.310319253873124 0.78317313063316 0.2884989 0.6944055 0.6592188 107 117 121
1.42713043899366 0.283548512494196 0.763010584435203 0.7426121 0.4760501 -0.4710665 144 152 161
1.43798743973696 0.264194263178483 0.77445506328559 0.724691 -0.2105086 0.6561319 150 158 171
1.32118967195965 0.190981563154861 0.78025753097506 -0.249376 -0.7768794 0.5781609 108 115 125
1.34631965432204 0.318332547820126 0.784542175428594 0.1412914 0.9897565 0.02046649 114 125 132
1.32362817908877 0.302013389517416 0.803285815871095 -0.06954595 0.3213213 0.944413 122 130 140
1.38032972997574 0.182102831016689 0.78437415483186 -0.0911034 -0.6951216 0.7130962 129 146 152
1.31723679697613 0.183816507467788 0.789945534020852 -0.9994765 -0.01543192 -0.02843512 178 179 188
1.36039899228395 0.322397485429522 0.777247088673898 0.152382 0.9861525 0.06544485 107 116 112
1.35485400273767 0.316183162914 0.769554525097458 -0.2368369 0.9614545 -0.1396911 74 85 73
1.42779056269826 0.29255548285491 0.765161187412624 0.7788543 0.2803754 -0.5610487 172 174 188
1.32504200391821 0.240821682890052 0.807728953942251 -0.3920864 -0.1575624 0.9063346 136 142 152
1.3480677618228 0.247513512160521 0.809704895042315 -0.207147 0.2767535 0.9383483 102 108 114
1.37103545579086 0.304151913880241 0.802559397745059 0.3646936 0.784971 0.5008186 111 125 141
1.3316333113145 0.266384369511695 0.802729123611886 -0.3932144 -0.08725995 0.9152968 123 131 142
1.42433467405875 0.183702313284773 0.764690197051921 0.5693991 -0.2625662 0.7790017 155 160 175
1.32059229516142 0.31624591784087 0.797535343067275 -0.2060474 0.7394833 0.6408658 176 183 186
1.30164951715028 0.2527018591944 0.797596361541388 -0.9416611 0.1847792 0.2813022 116 123 131
1.40081381042472 0.304992152935645 0.779795863406718 0.4984646 0.6945805 0.5187398 123 130 134
1.35026326543277 0.238944859498248 0.810438790305978 0.01897287 -0.2201414 0.9752835 121 130 135
1.42918620966095 0.177732646150087 0.751057775388303 0.5701842 -0.6902184 -0.4455206 139 143 161
1.36347512669101 0.184743129143742 0.781755316776196 0.014574 -0.5102955 0.8598756 132 137 148
1.34059593974204 0.31013726670792 0.800072832789911 0.07956735 0.5882291 0.8047706 139 143 153
1.42119860118065 0.289472214075331 0.75561024601528 0.9268265 0.2084641 -0.3123067 148 156 164
1.41033444480895 0.291031033702473 0.790284375993241 0.3612867 0.7572693 0.5440729 135 145 154
1.36584864085792 0.306556076692489 0.802328521076898 0.2146197 0.8139121 0.539894 147 153 162
1.31990995049561 0.238589486098319 0.800273934593943 -0.609664 -0.6002612 0.5176836 114 119 130
1.35798899111569 0.313323116652472 0.795119664524637 0.1558749 0.7702488 0.6184009 134 143 148
1.37713545360671 0.297188598260949 0.806811160496511 0.5831612 0.6011271 0.5464149 133 139 156
1.32899193484974 0.295667489150199 0.804983336703763 -0.08909348 0.2441423 0.965638 148 155 164
1.43470478246352 0.20420951458359 0.763765631388456 0.7541776 -0.10887 0.6475828 132 143 159
1.40092954524279 0.294023463650495 0.792396754912801 0.4171346 0.6301577 0.6549046 129 136 144
1.42665177145915 0.289347221439008 0.77664421747503 0.6518401 0.348899 0.6733306 157 165 176
1.38576114102116 0.239336910790473 0.807600216538329 0.4733197 -0.117411 0.873031 102 121 119
1.4377571617448 0.232968965872753 0.763851769840824 0.9748715 -0.2222194 -0.0156281 107 115 130
1.43229997293184 0.27142994826127 0.752292225945395 0.8810002 0.4174831 -0.2225906 180 185 198
1.36203355017737 0.296155572011247 0.81138464181462 -0.08592492 0.5290463 0.8442316 152 156 159
1.43581712416571 0.245430444344584 0.750911898894892 0.956418 0.07854915 -0.2812379 162 165 176
1.4335529722925 0.273789555996838 0.759364560569465 0.8409294 0.4052835 -0.3585847 180 187 196
1.42462870542363 0.28269277283668 0.782014235116706 0.5393543 0.4401065 0.7179158 133 137 149
1.4053390522051 0.214924977879265 0.788814680226517 0.774703 -0.2293074 0.5892821 125 138 154
1.37475031360423 0.203822296669923 0.794436569547579 0.1621795 -0.3182944 0.9340163 103 122 109
1.31609337406837 0.274370555587429 0.80617439979982 0.2285746 -0.1971823 0.9533482 150 159 167
1.30419969038499 0.259358386015589 0.803352550232371 -0.880954 0.1419321 0.4514147 108 114 125
1.30388360778803 0.271366444241955 0.79840208384008 -0.8456675 -0.250798 0.4711123 100 108 115
1.34951998937477 0.193606682630867 0.790240245231221 -0.01408059 -0.6270858 0.778823 85 101 107
1.30571602261899 0.250019613526641 0.803033126565812 -0.5615943 -0.3630092 0.7435296 145 147 159
1.37552502646219 0.315102379963514 0.781453981674107 0.2648854 0.8817376 0.3903516 99 113 113
1.33408266474075 0.224159371676865 0.800477562766656 -0.3542415 -0.5502977 0.7560988 113 120 133
1.43607418151687 0.27370467344472 0.7793572504951 0.7712854 0.1779914 0.6110956 170 175 188
1.33889921033614 0.203698687738314 0.792188781365611 -0.4295375 -0.0379479 0.9022514 158 162 168
1.3348754973615 0.282154958201646 0.809008699885041 -0.6044559 -0.1407174 0.784112 114 126 142
1.34807887971468 0.280340987692018 0.815607783069345 -0.08091461 0.5062038 0.8586097 122 129 133
1.4079936185157 0.201253907825432 0.781485514181446 0.6609802 -0.1712523 0.7306011 102 118 121
1.40502011042031 0.227523365193337 0.790993473512456 0.69296 0.0621677 0.7182907 106 115 128
1.3714416091268 0.22303838930801 0.799379339816204 0.3486003 -0.2168677 0.9118367 189 209 173
1.31569516432798 0.311792729795721 0.799933418755482 -0.2091454 0.4715974 0.8566529 156 167 173
1.40266420109822 0.248196331602282 0.7987086182006 0.6077262 -0.3448106 0.7153841 205 224 187
1.31893069379859 0.285949249475298 0.806616941260409 0.03054551 0.1663947 0.985586 128 137 149
1.4319746648105 0.199720098592495 0.764034675308881 0.5548944 -0.1883759 0.8103126 135 147 158
1.43351301083485 0.231054756364733 0.741441542769116 0.9776296 -0.2101341 -0.009169131 130 131 145
1.33233318046808 0.189915632649347 0.778218822761349 0.2853315 -0.6806344 0.674776 98 107 112
1.43453880323115 0.246873927692097 0.771511031417972 0.543472 -0.2679445 0.7955149 156 161 177
1.40012568209564 0.204872188652794 0.789399414251608 0.538306 -0.3835136 0.7504292 105 127 139
1.4180891676866 0.165380024229155 0.754640699994054 0.6940382 -0.6949595 -0.1879957 113 127 134
1.39966071633465 0.223919375724198 0.79676163924339 0.5357313 -0.1327892 0.8338819 174 179 192
1.34467634326088 0.206534355453142 0.794550616296179 -0.271532 -0.2260313 0.9355107 180 180 186
1.41007364878677 0.264337182871841 0.79852297169475 0.5218532 -0.4188202 0.7431412 168 179 182
1.43522290803537 0.192846488713843 0.75981695077861 0.757635 -0.2553077 0.6006724 143 152 171
1.40009258011601 0.256721538761898 0.803105999859059 0.5142858 -0.1794363 0.8386374 147 159 169
1.40533800157912 0.179539269527899 0.778597499990981 0.3117465 -0.3966079 0.8634328 119 137 148
1.40134883764608 0.210471037529687 0.791552742139632 0.6088412 -0.2043845 0.7665111 184 190 200
1.42048392054904 0.191497063053532 0.770390647986918 0.5442564 -0.1740578 0.8206637 161 167 182
1.37962810956434 0.20077561761638 0.792084672318573 0.199622 -0.3855118 0.9008506 130 171 101
1.36110301432978 0.307859656990516 0.801304870827858 0.1107323 0.7878469 0.6058347 137 143 154
1.33506870467894 0.284035652935665 0.810825706146522 -0.4598385 0.09404615 0.8830084 128 141 155
1.33358956849243 0.29085403844756 0.806286888582132 -0.1106802 0.3566445 0.9276608 117 124 134
1.37639964391382 0.248419461292114 0.810247869372686 -0.1641576 0.05666639 0.9848051 135 157 117
1.38223350663589 0.315927696860226 0.778775716964064 0.1378245 0.8992032 0.4152565 142 153 156
1.42085249977449 0.172557829572614 0.76267265938175 0.6455828 -0.5063416 0.5717 144 157 171
1.37571700923205 0.195455215691791 0.79074279048741 0.1849838 -0.4416635 0.8779033 118 129 135
1.36425242036837 0.175504724852106 0.775699218141552 -0.2554952 -0.8685677 0.4246318 174 177 181
1.42324286209202 0.171362983838027 0.75238347354731 0.681381 -0.728443 -0.07134969 148 156 169
1.33784678361119 0.22437738513185 0.801748979949094 -0.133815 -0.6528662 0.7455596 164 168 178
1.42378787192526 0.240486849618831 0.778797948211069 0.6600074 -0.09545371 0.7451704 144 151 165
1.36758332599286 0.266539409861951 0.815925136943656 0.07209578 -0.4649545 0.8823942 120 128 135
1.33426685437628 0.304753674178882 0.803490184601776 -0.07433926 0.3967504 0.9149114 143 151 164
1.31529851413981 0.308070995514747 0.800630628443494 -0.1452648 0.3035992 0.9416611 151 156 167
1.37230925905619 0.273597090496971 0.817621625798643 0.2756281 0.05676541 0.9595869 160 169 168
1.32638840457276 0.295561640160543 0.804765090234862 -0.02651625 0.2598162 0.9652939 122 129 142
1.38663807716526 0.177973777579516 0.778730420386666 0.02670365 -0.6639534 0.7472969 104 117 134
1.33110823126428 0.186191172950055 0.7780368465998 0.2140479 -0.7081086 0.6728786 142 150 158
1.3685017696268 0.270499043572885 0.818079373885255 0.09534049 -0.2346791 0.9673862 108 126 132
1.43748123672359 0.237048974749114 0.766743758092927 0.8950796 -0.20435 0.3963254 143 159 171
1.35864071843045 0.313667690835874 0.794680001856397 0.1548392 0.7886044 0.5950866 121 128 138
1.38907486337741 0.215929326498878 0.796857473177542 -0.09764194 -0.446652 0.8893638 105 118 128
1.41579382828678 0.226147530781387 0.783317068417989 0.5816891 -0.3283771 0.7441816 129 142 163
1.31280397542917 0.274624540992719 0.807812084734487 0.1644577 -0.1765991 0.9704465 138 147 161
1.43300022994568 0.243639435599391 0.73842024927805 0.9843337 0.1017511 0.143993 93 99 105
1.40689812115669 0.164071206806191 0.767176080987762 0.1945284 -0.94241 0.2720701 136 146 161
1.38492475212063 0.25919159769544 0.808802312012173 0.4348022 -0.1802699 0.8822981 109 118 126
1.35591159327264 0.209929740418694 0.799308198651273 0.05372529 -0.2695526 0.9614859 147 159 173
1.34333157539466 0.267575550998029 0.81321040010547 -0.4245254 -0.4452772 0.7883567 131 138 153
1.33769313276852 0.222654916999882 0.800887922953744 -0.2006484 -0.5249222 0.827162 125 140 133
1.39834171587892 0.271252623366467 0.803438105036363 0.2440271 -0.2036914 0.9481353 141 155 149
1.33651545338361 0.277800203185526 0.809684555291313 -0.703872 -0.1793318 0.6873167 105 107 118
1.40794990329705 0.291978395024991 0.789879211129373 0.4111411 0.6993673 0.584678 133 141 148
1.33578170156925 0.267755633648968 0.807243927975742 -0.7106202 -0.1177334 0.6936553 93 101 107
1.3524574733649 0.22384555433597 0.801122491618138 -0.131791 -0.3840787 0.9138461 137 151 157
1.33701877823857 0.274954750804565 0.809344174280593 -0.7590573 -0.1152039 0.6407495 101 108 116
1.30911065032439 0.299382776396505 0.802722327918863 -0.2153804 0.3504192 0.911492 154 160 168
1.43796872189839 0.234778612468717 0.763916597962878 0.9879323 -0.1517001 -0.03125754 108 115 128
1.43301288874207 0.226337461950611 0.743984742605861 0.9206496 -0.3335839 -0.2027958 108 119 126
1.39270957152891 0.299695509164226 0.791742005793896 0.2960697 0.5975283 0.7451863 127 135 140
1.3544782487965 0.225128432606504 0.803145159665863 -0.2017674 -0.4895199 0.8483279 152 153 164
1.4031909731798 0.214192716030053 0.789746560792795 0.7499362 -0.2315576 0.6196585 129 135 149
1.3963232937796 0.183504828108928 0.781824317668203 0.07898765 -0.3443041 0.9355296 167 173 181
1.30125840409878 0.244906464929713 0.791078610513521 -0.8388696 -0.4871776 0.2428081 101 108 112
1.38177476438113 0.195215373510246 0.78826993177917 0.2335855 -0.2977838 0.9256148 150 154 165
1.43251806679161 0.23432340593809 0.743595888791781 0.9970501 -0.07332636 -0.02268098 79 95 107
1.33037825239279 0.194235923725292 0.787154881614745 -0.2611763 -0.7698526 0.5823349 126 130 140
1.40013443646423 0.311868876124181 0.760347221947244 0.416373 0.8926952 0.1724205 125 132 141
1.43593545575725 0.244012331985566 0.75636519279578 0.9849365 -0.08727 -0.1492783 140 148 162
1.38588736353135 0.16922549687851 0.769750821729535 -0.3010014 -0.8691629 0.3923698 113 120 127
1.38225070050831 0.193808485477909 0.788154208367399 0.1373731 -0.2796793 0.9502147 142 148 161
1.32898987514687 0.256917822365473 0.801842186355189 -0.3862155 0.1531305 0.9096091 105 112 117
1.43525071775583 0.245343077288569 0.770429397104827 0.528977 -0.2437937 0.8128641 167 169 184
1.32696420125827 0.229547701527783 0.798440184052961 -0.6444285 -0.5188833 0.5616689 120 125 134
1.34323383648189 0.319606851012884 0.790770770176182 0.0983539 0.9466445 0.306905 133 136 141
1.43558061081266 0.230214301827546 0.758610017032459 0.9852493 -0.009769787 -0.1708464 118 130 147
1.382955428373 0.191296296354269 0.788334672312645 0.1060697 -0.2733054 0.9560614 130 143 148
1.41710326885804 0.299004154199443 0.748060384645751 0.9368688 0.2624469 -0.2310806 128 139 152
1.42373848614734 0.212613309227744 0.771711466606592 0.4373926 -0.2902463 0.8511432 168 174 186
1.41979253181478 0.302348335801708 0.769716193562211 0.5104324 0.8534685 0.105121 158 170 179
1.30595031981166 0.287835315006128 0.807239429687675 -0.4411674 0.1271905 0.8883659 183 184 193
1.42410502998512 0.180426725693427 0.764064544549321 0.5575307 -0.2525195 0.7908182 175 180 191
1.39470333685842 0.195075196015517 0.785098504971791 0.1412392 -0.5518683 0.8218837 145 150 159
1.41535719668723 0.167073388501708 0.766785957530481 0.6015198 -0.5005753 0.622574 191 196 211
1.34023260081757 0.250429040420937 0.806701511080228 -0.2251235 0.4137738 0.8821058 107 115 122
1.4159118828657 0.167544090668462 0.765946670651712 0.6912349 -0.4674772 0.5510529 177 186 201
1.41558368760826 0.265410658252496 0.795459147114246 0.5260625 -0.4817322 0.7008511 130 147 157
1.40365372144406 0.181007974520411 0.779824567238216 0.3149387 -0.2979679 0.9011264 151 156 173
1.38715946523979 0.179773822045524 0.780416623277969 0.108058 -0.6236715 0.7741816 103 113 118
1.42637243546729 0.173814824876845 0.755934402494321 0.5555729 -0.8211043 0.1308685 110 120 135
1.42050269218052 0.251998163457522 0.785165146833858 0.6636311 -0.1933556 0.7226391 137 145 158
1.34090375086611 0.20216585262319 0.794067414455581 -0.3708006 -0.06053238 0.9267376 179 182 187
1.42909413025968 0.181998884735864 0.745073111989511 0.6455049 -0.5364501 -0.5436402 187 189 200
1.4134912167626 0.280435727630903 0.796680753196018 0.2633883 0.4108831 0.8728124 130 138 146
1.43365299377674 0.200024065324669 0.763505046907319 0.6370016 -0.1763674 0.7504157 146 162 169
1.41004450666364 0.312096360595723 0.754069405455425 0.3699143 0.8858855 0.279947 153 153 168
1.42919928710195 0.219999835503057 0.745287314721348 0.8660077 -0.390432 -0.3123996 100 110 121
1.4257937378374 0.177064977971809 0.762064113427148 0.598286 -0.4237531 0.6800642 152 163 178
1.36235961497573 0.316661420190166 0.786596981490627 0.3062107 0.8045318 0.5088848 125 129 133
1.35280678032385 0.254332246644695 0.808658670062534 -0.2695632 0.03649677 0.9622909 98 104 108
1.37684839296118 0.172782740224413 0.77376112187116 0.2486232 -0.8169708 0.5203318 116 134 148
1.38378075331947 0.209320212216317 0.794632388854177 0.1207579 -0.2870409 0.9502763 115 125 137
1.41718693150706 0.295663289975278 0.780650780632696 0.3019443 0.6499715 0.6974 133 136 147
1.32359099743682 0.211802173929663 0.785495386606359 -0.3342022 -0.3965693 0.8550099 107 116 126
1.38599153918288 0.232458608172772 0.80600562079529 0.3400789 -0.3711768 0.8640453 175 201 153
1.33553122072305 0.249975149123409 0.805775948761711 -0.1572874 0.4276919 0.890135 125 131 142
1.41232794627183 0.25428377772156 0.792959090638799 0.585025 -0.2265804 0.7787215 154 159 173
1.3732091156971 0.220962915256189 0.798877861272119 0.3258921 -0.1383295 0.9352322 151 176 143
1.33698110571168 0.247562842293507 0.807501774574584 -0.2255682 0.4990442 0.8367041 132 133 144
1.3820314218934 0.186996391591568 0.786382070418906 0.1524359 -0.3756862 0.9141243 128 137 150
1.30577377726517 0.252374141181682 0.802981538202695 -0.6093149 -0.2132941 0.7637021 129 134 148
1.34103993554427 0.312721929150696 0.797884000918772 0.1139285 0.6652069 0.737916 109 114 120
